# .PCD v0.7 - Point Cloud Data file format
VERSION 0.7
FIELDS x y z intensity
SIZE 4 4 4 4 
TYPE F F F F 
COUNT 1 1 1 1 
WIDTH 773
HEIGHT 1
VIEWPOINT 0 0 0 1 0 0 0
POINTS 773
DATA ascii
21.714000701904297 2.1470000743865967 0.09099999815225601 1.0
22.016000747680664 2.1589999198913574 0.6970000267028809 2.0
21.968000411987305 2.1540000438690186 0.5690000057220459 0.0
21.893999099731445 2.1480000019073486 0.4429999887943268 0.0
21.86400032043457 2.1470000743865967 0.3149999976158142 1.0
21.83099937438965 2.1449999809265137 0.1899999976158142 1.0
21.820999145507812 2.1470000743865967 0.06499999761581421 1.0
22.243999481201172 2.1689999103546143 0.6779999732971191 1.0
22.099000930786133 2.1549999713897705 0.546999990940094 1.0
22.011999130249023 2.1470000743865967 0.4180000126361847 1.0
22.0049991607666 2.1480000019073486 0.28999999165534973 1.0
21.97100067138672 2.1459999084472656 0.164000004529953 0.0
21.940000534057617 2.1449999809265137 0.03999999910593033 0.0
22.42099952697754 2.1710000038146973 0.656000018119812 2.0
22.23900032043457 2.1549999713897705 0.5239999890327454 1.0
22.280000686645508 2.1610000133514404 0.3970000147819519 2.0
22.218000411987305 2.1540000438690186 0.2669999897480011 1.0
22.187999725341797 2.1540000438690186 0.14000000059604645 1.0
22.143999099731445 2.1510000228881836 0.013000000268220901 1.0
22.450000762939453 2.1600000858306885 0.6299999952316284 2.0
22.35700035095215 2.1510000228881836 0.5 1.0
22.433000564575195 2.1600000858306885 0.37400001287460327 3.0
22.3700008392334 2.1549999713897705 0.24199999868869781 2.0
22.3700008392334 2.1549999713897705 0.11500000208616257 2.0
22.31999969482422 2.1530001163482666 -0.013000000268220901 2.0
22.500999450683594 2.1480000019073486 0.6050000190734863 2.0
22.509000778198242 2.1500000953674316 0.47699999809265137 3.0
22.538000106811523 2.1540000438690186 0.3490000069141388 3.0
22.50200080871582 2.1519999504089355 0.21799999475479126 4.0
22.509000778198242 2.1530001163482666 0.09000000357627869 3.0
22.441999435424805 2.1480000019073486 -0.039000000804662704 2.0
22.597999572753906 2.1410000324249268 0.5809999704360962 3.0
22.59600067138672 2.1410000324249268 0.4519999921321869 22.0
22.591999053955078 2.1419999599456787 0.3230000138282776 4.0
22.57900047302246 2.1410000324249268 0.19200000166893005 4.0
22.565000534057617 2.1410000324249268 0.06300000101327896 3.0
22.542999267578125 2.1389999389648438 -0.06400000303983688 2.0
22.625999450683594 2.125999927520752 0.5559999942779541 18.0
22.607999801635742 2.124000072479248 0.4269999861717224 16.0
22.6299991607666 2.127000093460083 0.29899999499320984 15.0
22.6299991607666 2.128000020980835 0.16699999570846558 13.0
22.624000549316406 2.128000020980835 0.03799999877810478 10.0
22.635000228881836 2.130000114440918 -0.08799999952316284 7.0
22.63599967956543 2.1070001125335693 0.531000018119812 24.0
22.621000289916992 2.1059999465942383 0.4009999930858612 17.0
22.62700080871582 2.1070001125335693 0.27300000190734863 16.0
22.631999969482422 2.1089999675750732 0.1420000046491623 15.0
22.631000518798828 2.1089999675750732 0.013000000268220901 12.0
22.635000228881836 2.1110000610351562 -0.11400000005960464 12.0
22.631000518798828 2.0869998931884766 0.5059999823570251 19.0
22.64900016784668 2.0889999866485596 0.37700000405311584 22.0
22.634000778198242 2.0880000591278076 0.24799999594688416 22.0
22.631999969482422 2.0880000591278076 0.11699999868869781 20.0
22.634000778198242 2.0889999866485596 -0.012000000104308128 19.0
22.641000747680664 2.0910000801086426 -0.14000000059604645 19.0
22.635000228881836 2.066999912261963 0.47999998927116394 7.0
22.631999969482422 2.065999984741211 0.35199999809265137 12.0
22.638999938964844 2.068000078201294 0.22300000488758087 12.0
22.636999130249023 2.066999912261963 0.09099999815225601 11.0
22.636999130249023 2.066999912261963 -0.03700000047683716 11.0
22.645999908447266 2.069999933242798 -0.164000004529953 12.0
22.819000244140625 2.061000108718872 0.45899999141693115 1.0
22.783000946044922 2.058000087738037 0.32899999618530273 1.0
22.767000198364258 2.056999921798706 0.19900000095367432 1.0
22.757999420166016 2.056999921798706 0.06700000166893005 1.0
22.7549991607666 2.055999994277954 -0.06199999898672104 1.0
22.735000610351562 2.053999900817871 -0.1889999955892563 1.0
22.97599983215332 2.052999973297119 0.43799999356269836 0.0
22.97800064086914 2.052999973297119 0.3070000112056732 0.0
22.957000732421875 2.0510001182556152 0.17599999904632568 0.0
22.95800018310547 2.0510001182556152 0.04399999976158142 0.0
22.95400047302246 2.0510001182556152 -0.08500000089406967 1.0
22.91699981689453 2.0480000972747803 -0.2160000056028366 0.0
23.211000442504883 2.0490000247955322 0.4169999957084656 0.0
23.14900016784668 2.0439999103546143 0.2849999964237213 0.0
23.17799949645996 2.046999931335449 0.15299999713897705 0.0
23.145000457763672 2.0439999103546143 0.01899999938905239 0.0
23.159000396728516 2.0450000762939453 -0.11100000143051147 0.0
23.113000869750977 2.0420000553131104 -0.24199999868869781 0.0
23.410999298095703 2.0429999828338623 0.3970000147819519 0.0
23.402000427246094 2.0409998893737793 0.2639999985694885 0.0
23.423999786376953 2.0439999103546143 0.13099999725818634 0.0
23.402999877929688 2.0409998893737793 -0.004000000189989805 0.0
23.35700035095215 2.0380001068115234 -0.13600000739097595 0.0
23.368999481201172 2.0390000343322754 -0.26899999380111694 0.0
23.63800048828125 2.0360000133514404 0.37599998712539673 0.0
23.607999801635742 2.0329999923706055 0.24199999868869781 0.0
23.628999710083008 2.0350000858306885 0.1080000028014183 0.0
23.607999801635742 2.0329999923706055 -0.029999999329447746 0.0
23.631000518798828 2.0360000133514404 -0.16200000047683716 0.0
23.59600067138672 2.0320000648498535 -0.29600000381469727 0.0
23.87299919128418 2.0290000438690186 0.35600000619888306 0.0
23.854000091552734 2.0260000228881836 0.22100000083446503 0.0
23.863000869750977 2.0269999504089355 0.08399999886751175 0.0
23.874000549316406 2.0280001163482666 -0.05400000140070915 0.0
23.858999252319336 2.0260000228881836 -0.1860000044107437 0.0
23.80299949645996 2.0220000743865967 -0.32100000977516174 0.0
24.132999420166016 2.0220000743865967 0.335999995470047 0.0
24.11400032043457 2.0199999809265137 0.1979999989271164 0.0
24.135000228881836 2.0220000743865967 0.061000000685453415 0.0
24.11199951171875 2.0190000534057617 -0.07800000160932541 0.0
24.08799934387207 2.0169999599456787 -0.21199999749660492 0.0
24.12700080871582 2.0199999809265137 -0.3490000069141388 0.0
24.402999877929688 2.0160000324249268 0.3160000145435333 0.0
24.393999099731445 2.013000011444092 0.1770000010728836 0.0
24.39699935913086 2.013000011444092 0.03799999877810478 0.0
24.378000259399414 2.010999917984009 -0.10000000149011612 0.0
24.356000900268555 2.009000062942505 -0.23800000548362732 0.0
24.378000259399414 2.009999990463257 -0.37599998712539673 0.0
24.690000534057617 2.006999969482422 0.29499998688697815 0.0
24.66200065612793 2.005000114440918 0.1550000011920929 0.0
24.628999710083008 2.000999927520752 0.014999999664723873 0.0
24.648000717163086 2.002000093460083 -0.12399999797344208 0.0
24.66699981689453 2.003000020980835 -0.2639999985694885 0.0
24.649999618530273 2.000999927520752 -0.40400001406669617 0.0
24.968000411987305 1.9980000257492065 0.2750000059604645 0.0
24.958999633789062 1.9950000047683716 0.1340000033378601 0.0
24.993000030517578 1.9980000257492065 -0.007000000216066837 0.0
24.98699951171875 1.996000051498413 -0.14900000393390656 0.0
24.93400001525879 1.9919999837875366 -0.28999999165534973 0.0
24.965999603271484 1.99399995803833 -0.4320000112056732 0.0
25.23699951171875 1.9850000143051147 0.2549999952316284 1.0
25.312000274658203 1.9900000095367432 0.11299999803304672 0.0
25.285999298095703 1.9869999885559082 -0.029999999329447746 0.0
25.239999771118164 1.9830000400543213 -0.17299999296665192 0.0
25.259000778198242 1.9830000400543213 -0.3160000145435333 0.0
25.280000686645508 1.9839999675750732 -0.45899999141693115 0.0
25.7810001373291 1.99399995803833 0.2370000034570694 1.0
25.871000289916992 1.9980000257492065 0.09300000220537186 1.0
25.80500030517578 1.9919999837875366 -0.05400000140070915 0.0
25.84600067138672 1.9950000047683716 -0.20100000500679016 0.0
25.709999084472656 1.9830000400543213 -0.3440000116825104 0.0
25.67300033569336 1.9789999723434448 -0.48899999260902405 0.0
26.63599967956543 2.0239999294281006 0.22300000488758087 1.0
26.624000549316406 2.0209999084472656 0.07199999690055847 1.0
26.606000900268555 2.0179998874664307 -0.07800000160932541 1.0
26.589000701904297 2.015000104904175 -0.2290000021457672 1.0
26.06399917602539 1.9730000495910645 -0.3709999918937683 0.0
25.990999221801758 1.965999960899353 -0.5180000066757202 0.0
27.073999404907227 2.0169999599456787 0.20499999821186066 4.0
27.097999572753906 2.0179998874664307 0.052000001072883606 4.0
27.077999114990234 2.0139999389648438 -0.10199999809265137 3.0
27.06999969482422 2.01200008392334 -0.2549999952316284 3.0
26.490999221801758 1.9670000076293945 -0.39899998903274536 1.0
26.430999755859375 1.9609999656677246 -0.5479999780654907 0.0
27.18400001525879 1.9850000143051147 0.18299999833106995 20.0
27.19700050354004 1.9839999675750732 0.029999999329447746 17.0
27.187000274658203 1.9819999933242798 -0.12200000137090683 15.0
27.208999633789062 1.9819999933242798 -0.27900001406669617 13.0
26.7450008392334 1.9459999799728394 -0.42399999499320984 1.0
26.858999252319336 1.9529999494552612 -0.578000009059906 0.0
27.194000244140625 1.944000005722046 0.16200000047683716 19.0
27.187000274658203 1.940999984741211 0.00800000037997961 15.0
27.194000244140625 1.940000057220459 -0.14300000667572021 13.0
27.201000213623047 1.940000057220459 -0.29899999499320984 10.0
27.167999267578125 1.934999942779541 -0.4519999921321869 0.0
27.27400016784668 1.940999984741211 -0.6079999804496765 0.0
27.527999877929688 1.9249999523162842 0.14300000667572021 1.0
27.530000686645508 1.9240000247955322 -0.012000000104308128 1.0
27.538000106811523 1.9220000505447388 -0.16500000655651093 0.0
27.583999633789062 1.9229999780654907 -0.3240000009536743 0.0
27.6200008392334 1.9229999780654907 -0.47999998927116394 0.0
27.670000076293945 1.9259999990463257 -0.6359999775886536 0.0
27.992000579833984 1.9140000343322754 0.12399999797344208 0.0
27.96299934387207 1.909000039100647 -0.03200000151991844 0.0
27.965999603271484 1.906999945640564 -0.18700000643730164 0.0
28.054000854492188 1.9119999408721924 -0.3490000069141388 0.0
28.10099983215332 1.9129999876022339 -0.5070000290870667 0.0
28.003000259399414 1.9049999713897705 -0.6639999747276306 0.0
28.45199966430664 1.899999976158142 0.10700000077486038 0.0
28.482999801635742 1.899999976158142 -0.05299999937415123 0.0
28.437999725341797 1.8949999809265137 -0.210999995470047 0.0
28.527999877929688 1.8980000019073486 -0.37400001287460327 0.0
28.55900001525879 1.8990000486373901 -0.5350000262260437 0.0
32.917999267578125 2.194000005722046 -0.8040000200271606 3.0
28.95599937438965 1.8869999647140503 0.09000000357627869 0.0
28.929000854492188 1.8819999694824219 -0.07199999690055847 0.0
28.968000411987305 1.8830000162124634 -0.2329999953508377 0.0
28.989999771118164 1.8819999694824219 -0.39899998903274536 0.0
29.11199951171875 1.8869999647140503 -0.5649999976158142 0.0
32.41999816894531 2.1059999465942383 -0.8130000233650208 1.0
29.433000564575195 1.8700000047683716 0.07400000095367432 1.0
29.49799919128418 1.871999979019165 -0.09200000017881393 0.0
29.51300048828125 1.86899995803833 -0.25699999928474426 0.0
29.527000427246094 1.8669999837875366 -0.42500001192092896 0.0
29.666000366210938 1.8739999532699585 -0.593999981880188 0.0
34.02000045776367 2.1549999713897705 -0.8740000128746033 4.0
30.027999877929688 1.8569999933242798 0.0560000017285347 1.0
30.03700065612793 1.8550000190734863 -0.11299999803304672 1.0
30.05500030517578 1.8519999980926514 -0.2800000011920929 1.0
30.118999481201172 1.8539999723434448 -0.45100000500679016 0.0
30.219999313354492 1.8580000400543213 -0.6230000257492065 0.0
33.82400131225586 2.0829999446868896 -0.8880000114440918 5.0
31.52899932861328 1.8980000019073486 0.03999999910593033 3.0
31.483999252319336 1.8910000324249268 -0.13600000739097595 2.0
30.7549991607666 1.843000054359436 -0.30300000309944153 1.0
30.711999893188477 1.8389999866485596 -0.47699999809265137 0.0
34.025001525878906 2.0390000343322754 -0.722000002861023 1.0
34.013999938964844 2.0350000858306885 -0.9120000004768372 0.0
31.74799919128418 1.8550000190734863 0.024000000208616257 19.0
31.7450008392334 1.8519999980926514 -0.15199999511241913 17.0
31.315000534057617 1.8229999542236328 -0.32499998807907104 1.0
31.389999389648438 1.8240000009536743 -0.5049999952316284 0.0
34.65800094604492 2.0160000324249268 -0.753000020980835 1.0
39.97100067138672 2.3310000896453857 -1.093999981880188 1.0
31.763999938964844 1.8009999990463257 0.00800000037997961 7.0
31.770999908447266 1.7970000505447388 -0.1679999977350235 5.0
31.933000564575195 1.8020000457763672 -0.34599998593330383 0.0
32.05099868774414 1.8049999475479126 -0.5299999713897705 0.0
35.39400100708008 1.996000051498413 -0.7860000133514404 1.0
40.952999114990234 2.315000057220459 -1.1410000324249268 0.0
32.45399856567383 1.781999945640564 -0.00800000037997961 1.0
32.513999938964844 1.781000018119812 -0.18700000643730164 0.0
32.65599822998047 1.784999966621399 -0.3700000047683716 0.0
34.1349983215332 1.8650000095367432 -0.5809999704360962 3.0
35.30699920654297 1.9259999990463257 -0.7990000247955322 1.0
41.893001556396484 2.2920000553131104 -1.184999942779541 3.0
33.20899963378906 1.7640000581741333 -0.02199999988079071 0.0
33.332000732421875 1.7669999599456787 -0.2070000022649765 0.0
33.439998626708984 1.7680000066757202 -0.39399999380111694 0.0
34.2599983215332 1.809000015258789 -0.5989999771118164 5.0
39.582000732421875 2.0940001010894775 -0.9139999747276306 5.0
42.7869987487793 2.2639999389648438 -1.2280000448226929 3.0
34.069000244140625 1.746999979019165 -0.03700000047683716 0.0
33.97999954223633 1.7389999628067017 -0.22300000488758087 0.0
34.23500061035156 1.746999979019165 -0.4169999957084656 0.0
39.72100067138672 2.0309998989105225 -0.7099999785423279 8.0
40.792999267578125 2.0829999446868896 -0.9580000042915344 1.0
42.733001708984375 2.180000066757202 -1.2430000305175781 2.0
35.92399978637695 1.777999997138977 -0.05299999937415123 2.0
35.000999450683594 1.7269999980926514 -0.24300000071525574 1.0
35.04499816894531 1.7239999771118164 -0.4390000104904175 0.0
35.79399871826172 1.7580000162124634 -0.6520000100135803 5.0
40.84700012207031 2.007999897003174 -0.9729999899864197 1.0
25.283000946044922 1.2209999561309814 -0.7379999756813049 0.0
25.3439998626709 1.190999984741211 -0.041999999433755875 0.0
25.32200050354004 1.187999963760376 -0.18000000715255737 1.0
25.320999145507812 1.184999942779541 -0.32199999690055847 4.0
25.305999755859375 1.180999994277954 -0.4650000035762787 5.0
25.309999465942383 1.1770000457763672 -0.6050000190734863 11.0
25.288999557495117 1.1729999780654907 -0.7450000047683716 12.0
25.270000457763672 1.1399999856948853 -0.05000000074505806 15.0
25.260000228881836 1.1349999904632568 -0.18799999356269836 14.0
25.256999969482422 1.1330000162124634 -0.328000009059906 15.0
25.239999771118164 1.128999948501587 -0.47099998593330383 15.0
25.238000869750977 1.1260000467300415 -0.6100000143051147 15.0
25.229999542236328 1.121000051498413 -0.7509999871253967 16.0
25.222999572753906 1.0889999866485596 -0.0560000017285347 19.0
25.211999893188477 1.0839999914169312 -0.1940000057220459 17.0
25.209999084472656 1.0809999704360962 -0.33399999141693115 18.0
25.20800018310547 1.0779999494552612 -0.47699999809265137 17.0
25.20800018310547 1.0750000476837158 -0.6169999837875366 17.0
25.208999633789062 1.0709999799728394 -0.7559999823570251 16.0
25.187000274658203 1.0390000343322754 -0.06199999898672104 19.0
25.201000213623047 1.034999966621399 -0.20000000298023224 18.0
25.195999145507812 1.031000018119812 -0.3400000035762787 18.0
25.18600082397461 1.027999997138977 -0.48100000619888306 17.0
25.19300079345703 1.0240000486373901 -0.6209999918937683 16.0
25.20400047302246 1.0219999551773071 -0.7609999775886536 16.0
25.17300033569336 0.9879999756813049 -0.06599999964237213 20.0
25.187000274658203 0.9860000014305115 -0.20399999618530273 20.0
25.187999725341797 0.9819999933242798 -0.34299999475479126 18.0
25.177000045776367 0.9779999852180481 -0.48500001430511475 18.0
25.18899917602539 0.9739999771118164 -0.625 17.0
25.207000732421875 0.972000002861023 -0.7649999856948853 14.0
25.177000045776367 0.9390000104904175 -0.07000000029802322 21.0
25.18899917602539 0.9359999895095825 -0.2070000022649765 20.0
25.187000274658203 0.9319999814033508 -0.34700000286102295 19.0
25.19499969482422 0.9279999732971191 -0.48899999260902405 16.0
25.207000732421875 0.925000011920929 -0.6290000081062317 15.0
25.211000442504883 0.921999990940094 -0.7680000066757202 14.0
25.201000213623047 0.8889999985694885 -0.0729999989271164 20.0
25.194000244140625 0.8849999904632568 -0.20999999344348907 18.0
25.202999114990234 0.8809999823570251 -0.3499999940395355 17.0
25.2189998626709 0.878000020980835 -0.492000013589859 14.0
25.229999542236328 0.8759999871253967 -0.6309999823570251 13.0
25.243000030517578 0.8730000257492065 -0.7710000276565552 12.0
25.218000411987305 0.8389999866485596 -0.07500000298023224 15.0
25.242000579833984 0.8370000123977661 -0.21199999749660492 14.0
25.25200080871582 0.8339999914169312 -0.35199999809265137 14.0
25.260000228881836 0.8289999961853027 -0.49300000071525574 12.0
25.285999298095703 0.8259999752044678 -0.6330000162124634 11.0
25.308000564575195 0.8240000009536743 -0.7730000019073486 10.0
25.29199981689453 0.7910000085830688 -0.07599999755620956 11.0
25.312000274658203 0.7879999876022339 -0.21299999952316284 8.0
25.341999053955078 0.7850000262260437 -0.3540000021457672 4.0
25.33799934387207 0.7799999713897705 -0.4959999918937683 3.0
25.361000061035156 0.777999997138977 -0.6370000243186951 0.0
39.1349983215332 1.2209999561309814 -1.2050000429153442 6.0
46.308998107910156 1.3969999551773071 -0.14800000190734863 0.0
51.729000091552734 1.5579999685287476 -0.44999998807907104 0.0
59.24100112915039 1.7829999923706055 -0.8429999947547913 2.0
53.04600143432617 1.5829999446868896 -1.0509999990463257 3.0
46.27899932861328 1.3669999837875366 -1.1699999570846558 6.0
39.23099899291992 1.1449999809265137 -1.2059999704360962 8.0
47.8849983215332 1.3489999771118164 -0.15199999511241913 0.0
54.06399917602539 1.5210000276565552 -0.46799999475479126 2.0
59.696998596191406 1.6749999523162842 -0.8460000157356262 1.0
52.220001220703125 1.4500000476837158 -1.031999945640564 4.0
46.12900161743164 1.2680000066757202 -1.1629999876022339 8.0
39.18199920654297 1.062999963760376 -1.2020000219345093 8.0
49.55799865722656 1.2979999780654907 -0.15299999713897705 0.0
56.02000045776367 1.4620000123977661 -0.48100000619888306 2.0
61.26300048828125 1.5950000286102295 -0.8629999756813049 0.0
51.54600143432617 1.3250000476837158 -1.0140000581741333 1.0
45.44599914550781 1.156000018119812 -1.1410000324249268 8.0
39.141998291015625 0.9810000061988831 -1.1970000267028809 8.0
56.64400100708008 1.3739999532699585 -0.1720000058412552 1.0
56.62300109863281 1.3630000352859497 -0.4790000021457672 0.0
61.62799835205078 1.4769999980926514 -0.8610000014305115 3.0
52.90999984741211 1.253000020980835 -1.0329999923706055 3.0
45.7130012512207 1.0679999589920044 -1.1410000324249268 6.0
39.0880012512207 0.8989999890327454 -1.187999963760376 8.0
62.38399887084961 1.3910000324249268 -0.18000000715255737 6.0
63.64699935913086 1.4079999923706055 -0.5299999713897705 0.0
61.970001220703125 1.3589999675750732 -0.8560000061988831 3.0
52.492000579833984 1.1360000371932983 -1.0149999856948853 4.0
45.47999954223633 0.9700000286102295 -1.128000020980835 6.0
38.88399887084961 0.8149999976158142 -1.1749999523162842 12.0
57.47700119018555 1.159999966621399 -0.15399999916553497 0.0
71.49099731445312 1.4429999589920044 -0.5839999914169312 2.0
61.73500061035156 1.2289999723434448 -0.8399999737739563 2.0
51.59000015258789 1.0099999904632568 -0.9869999885559082 3.0
45.79999923706055 0.8830000162124634 -1.1260000467300415 11.0
38.45399856567383 0.7269999980926514 -1.1540000438690186 28.0
58.67900085449219 1.065000057220459 -0.14399999380111694 2.0
74.55799865722656 1.3530000448226929 -0.5920000076293945 0.0
61.26900100708008 1.093999981880188 -0.8190000057220459 2.0
51.69599914550781 0.906000018119812 -0.9769999980926514 4.0
45.652000427246094 0.7850000262260437 -1.1100000143051147 12.0
38.45600128173828 0.6460000276565552 -1.1440000534057617 12.0
0.028999999165534973 -0.04899999871850014 0.013000000268220901 0.0
75.27200317382812 1.2100000381469727 -0.5770000219345093 1.0
60.74399948120117 0.9570000171661377 -0.7950000166893005 2.0
51.582000732421875 0.7950000166893005 -0.9599999785423279 4.0
45.7400016784668 0.6919999718666077 -1.100000023841858 7.0
38.444000244140625 0.5659999847412109 -1.1319999694824219 24.0
72.76100158691406 1.031000018119812 -0.13899999856948853 2.0
0.028999999165534973 -0.04899999871850014 0.013000000268220901 0.0
60.67599868774414 0.8309999704360962 -0.7749999761581421 2.0
51.805999755859375 0.6919999718666077 -0.9470000267028809 4.0
46.19300079345703 0.6039999723434448 -1.0959999561309814 7.0
39.84700012207031 0.5059999823570251 -1.159999966621399 12.0
0.028999999165534973 -0.04899999871850014 0.013000000268220901 0.0
74.99199676513672 0.8980000019073486 -0.5260000228881836 0.0
60.808998107910156 0.7070000171661377 -0.7549999952316284 4.0
51.805999755859375 0.5860000252723694 -0.9290000200271606 4.0
46.54100036621094 0.5130000114440918 -1.0859999656677246 7.0
40.099998474121094 0.4269999861717224 -1.1519999504089355 10.0
0.028999999165534973 -0.04899999871850014 0.013000000268220901 0.0
0.028999999165534973 -0.04899999871850014 0.013000000268220901 0.0
59.641998291015625 0.5699999928474426 -0.7170000076293945 4.0
52.63999938964844 0.4880000054836273 -0.921999990940094 5.0
46.624000549316406 0.4180000126361847 -1.0700000524520874 6.0
40.375999450683594 0.34700000286102295 -1.1440000534057617 13.0
0.028999999165534973 -0.04899999871850014 0.013000000268220901 0.0
0.028999999165534973 -0.04899999871850014 0.013000000268220901 0.0
59.56999969482422 0.44600000977516174 -0.6909999847412109 5.0
53.314998626708984 0.3840000033378601 -0.9120000004768372 6.0
47.58000183105469 0.328000009059906 -1.0709999799728394 5.0
40.78300094604492 0.26600000262260437 -1.1369999647140503 9.0
0.028999999165534973 -0.04899999871850014 0.013000000268220901 0.0
77.04499816894531 0.4449999928474426 -0.4449999928474426 0.0
59.56800079345703 0.3230000138282776 -0.6629999876022339 4.0
53.632999420166016 0.2759999930858612 -0.890999972820282 6.0
47.90999984741211 0.23199999332427979 -1.0540000200271606 3.0
42.52199935913086 0.19300000369548798 -1.1660000085830688 7.0
0.028999999165534973 -0.04899999871850014 0.013000000268220901 0.0
0.028999999165534973 -0.04899999871850014 0.013000000268220901 0.0
59.63999938964844 0.20000000298023224 -0.6330000162124634 2.0
54.02399826049805 0.16599999368190765 -0.8700000047683716 5.0
47.92300033569336 0.13199999928474426 -1.0299999713897705 2.0
44.34299850463867 0.10999999940395355 -1.1929999589920044 8.0
0.028999999165534973 -0.04899999871850014 0.013000000268220901 0.0
82.375 0.14100000262260437 -0.39100000262260437 0.0
61.09299850463867 0.07999999821186066 -0.6150000095367432 1.0
54.400001525878906 0.054999999701976776 -0.847000002861023 3.0
48.29399871826172 0.035999998450279236 -1.0119999647140503 0.0
45.07600021362305 0.020999999716877937 -1.187000036239624 9.0
0.028999999165534973 -0.04899999871850014 0.013000000268220901 0.0
83.74600219726562 -0.026000000536441803 -0.3499999940395355 1.0
64.58999633789062 -0.04399999976158142 -0.6140000224113464 2.0
54.457000732421875 -0.0560000017285347 -0.8159999847412109 0.0
50.88999938964844 -0.06400000303983688 -1.0369999408721924 10.0
45.763999938964844 -0.0729999989271164 -1.1779999732971191 8.0
75.12000274658203 -0.17000000178813934 0.13899999856948853 3.0
75.0250015258789 -0.18299999833106995 -0.26600000262260437 11.0
67.43599700927734 -0.18199999630451202 -0.6000000238418579 4.0
59.042999267578125 -0.17599999904632568 -0.8479999899864197 6.0
51.749000549316406 -0.17100000381469727 -1.0210000276565552 5.0
46.507999420166016 -0.16699999570846558 -1.1670000553131104 6.0
74.98100280761719 -0.32199999690055847 0.1860000044107437 19.0
74.99600219726562 -0.335999995470047 -0.21699999272823334 18.0
68.26899719238281 -0.3240000009536743 -0.5630000233650208 5.0
60.06100082397461 -0.3019999861717224 -0.8230000138282776 6.0
52.979000091552734 -0.2809999883174896 -1.0110000371932983 5.0
47.39699935913086 -0.2669999897480011 -1.1579999923706055 4.0
75.00499725341797 -0.4740000069141388 0.2370000034570694 18.0
75.03500366210938 -0.48899999260902405 -0.16599999368190765 12.0
0.028999999165534973 -0.04899999871850014 0.013000000268220901 0.0
60.52899932861328 -0.4269999861717224 -0.7870000004768372 5.0
53.5620002746582 -0.3919999897480011 -0.984000027179718 4.0
49.54600143432617 -0.3779999911785126 -1.1770000457763672 6.0
117.56700134277344 -0.953000009059906 0.45100000500679016 3.0
0.028999999165534973 -0.04899999871850014 0.013000000268220901 0.0
75.28500366210938 -0.656000018119812 -0.515999972820282 1.0
60.74100112915039 -0.5509999990463257 -0.7459999918937683 2.0
54.814998626708984 -0.5120000243186951 -0.9660000205039978 2.0
50.32099914550781 -0.4830000102519989 -1.156999945640564 5.0
118.63500213623047 -1.1979999542236328 0.5429999828338623 3.0
94.7959976196289 -0.984000027179718 -0.07199999690055847 1.0
75.7030029296875 -0.8100000023841858 -0.46299999952316284 0.0
64.52100372314453 -0.7110000252723694 -0.7429999709129333 1.0
57.2859992980957 -0.6489999890327454 -0.9649999737739563 4.0
50.840999603271484 -0.5899999737739563 -1.128999948501587 4.0
115.072998046875 -1.3940000534057617 0.6190000176429749 13.0
101.56500244140625 -1.2549999952316284 0.0020000000949949026 1.0
79.72599792480469 -1.0110000371932983 -0.4230000078678131 0.0
0.028999999165534973 -0.04899999871850014 0.013000000268220901 0.0
59.13199996948242 -0.7839999794960022 -0.949999988079071 4.0
51.64799880981445 -0.7009999752044678 -1.1039999723434448 2.0
115.10900115966797 -1.621999979019165 0.7129999995231628 6.0
102.51000213623047 -1.4709999561309814 0.08699999749660492 6.0
82.54100036621094 -1.2089999914169312 -0.3700000047683716 0.0
68.39099884033203 -1.0230000019073486 -0.6769999861717224 0.0
60.573001861572266 -0.921999990940094 -0.921999990940094 4.0
52.68000030517578 -0.8190000057220459 -1.0820000171661377 2.0
0.028999999165534973 -0.04899999871850014 0.013000000268220901 0.0
102.625 -1.6729999780654907 0.17599999904632568 8.0
85.65899658203125 -1.4190000295639038 -0.3100000023841858 1.0
72.01499938964844 -1.2139999866485596 -0.6489999890327454 1.0
60.909000396728516 -1.0449999570846558 -0.8730000257492065 0.0
54.619998931884766 -0.9520000219345093 -1.0740000009536743 2.0
0.028999999165534973 -0.04899999871850014 0.013000000268220901 0.0
118.52999877929688 -2.1540000438690186 0.30799999833106995 2.0
0.028999999165534973 -0.04899999871850014 0.013000000268220901 0.0
75.16300201416016 -1.4110000133514404 -0.6100000143051147 0.0
0.028999999165534973 -0.04899999871850014 0.013000000268220901 0.0
55.28900146484375 -1.0700000524520874 -1.0369999408721924 1.0
0.028999999165534973 -0.04899999871850014 0.013000000268220901 0.0
136.26499938964844 -2.7339999675750732 0.4790000021457672 2.0
0.028999999165534973 -0.04899999871850014 0.013000000268220901 0.0
0.028999999165534973 -0.04899999871850014 0.013000000268220901 0.0
65.79900360107422 -1.378999948501587 -0.8209999799728394 0.0
57.29499816894531 -1.218999981880188 -1.0190000534057617 1.0
0.028999999165534973 -0.04899999871850014 0.013000000268220901 0.0
138.29100036621094 -3.0399999618530273 0.6200000047683716 6.0
0.028999999165534973 -0.04899999871850014 0.013000000268220901 0.0
0.028999999165534973 -0.04899999871850014 0.013000000268220901 0.0
0.028999999165534973 -0.04899999871850014 0.013000000268220901 0.0
58.89899826049805 -1.3639999628067017 -0.9900000095367432 1.0
0.028999999165534973 -0.04899999871850014 0.013000000268220901 0.0
0.028999999165534973 -0.04899999871850014 0.013000000268220901 0.0
0.028999999165534973 -0.04899999871850014 0.013000000268220901 0.0
0.028999999165534973 -0.04899999871850014 0.013000000268220901 0.0
71.15299987792969 -1.7619999647140503 -0.746999979019165 0.0
0.028999999165534973 -0.04899999871850014 0.013000000268220901 0.0
0.028999999165534973 -0.04899999871850014 0.013000000268220901 0.0
0.028999999165534973 -0.04899999871850014 0.013000000268220901 0.0
0.028999999165534973 -0.04899999871850014 0.013000000268220901 0.0
0.028999999165534973 -0.04899999871850014 0.013000000268220901 0.0
0.028999999165534973 -0.04899999871850014 0.013000000268220901 0.0
0.028999999165534973 -0.04899999871850014 0.013000000268220901 0.0
0.028999999165534973 -0.04899999871850014 0.013000000268220901 0.0
0.028999999165534973 -0.04899999871850014 0.013000000268220901 0.0
0.028999999165534973 -0.04899999871850014 0.013000000268220901 0.0
0.028999999165534973 -0.04899999871850014 0.013000000268220901 0.0
0.028999999165534973 -0.04899999871850014 0.013000000268220901 0.0
63.05799865722656 -1.809999942779541 -0.8619999885559082 0.0
0.028999999165534973 -0.04899999871850014 0.013000000268220901 0.0
0.028999999165534973 -0.04899999871850014 0.013000000268220901 0.0
0.028999999165534973 -0.04899999871850014 0.013000000268220901 0.0
0.028999999165534973 -0.04899999871850014 0.013000000268220901 0.0
0.028999999165534973 -0.04899999871850014 0.013000000268220901 0.0
66.92500305175781 -2.0420000553131104 -0.8399999737739563 0.0
0.028999999165534973 -0.04899999871850014 0.013000000268220901 0.0
0.028999999165534973 -0.04899999871850014 0.013000000268220901 0.0
0.028999999165534973 -0.04899999871850014 0.013000000268220901 0.0
104.60199737548828 -3.318000078201294 -0.09399999678134918 1.0
83.0250015258789 -2.6570000648498535 -0.5139999985694885 1.0
69.35299682617188 -2.236999988555908 -0.7919999957084656 0.0
0.028999999165534973 -0.04899999871850014 0.013000000268220901 0.0
0.028999999165534973 -0.04899999871850014 0.013000000268220901 0.0
0.028999999165534973 -0.04899999871850014 0.013000000268220901 0.0
0.028999999165534973 -0.04899999871850014 0.013000000268220901 0.0
83.11100006103516 -2.806999921798706 -0.4169999957084656 1.0
74.01699829101562 -2.5179998874664307 -0.7590000033378601 1.0
0.028999999165534973 -0.04899999871850014 0.013000000268220901 0.0
0.028999999165534973 -0.04899999871850014 0.013000000268220901 0.0
0.028999999165534973 -0.04899999871850014 0.013000000268220901 0.0
0.028999999165534973 -0.04899999871850014 0.013000000268220901 0.0
83.0979995727539 -2.953000068664551 -0.31700000166893005 2.0
74.35299682617188 -2.6600000858306885 -0.675000011920929 0.0
0.028999999165534973 -0.04899999871850014 0.013000000268220901 0.0
0.028999999165534973 -0.04899999871850014 0.013000000268220901 0.0
0.028999999165534973 -0.04899999871850014 0.013000000268220901 0.0
0.028999999165534973 -0.04899999871850014 0.013000000268220901 0.0
0.028999999165534973 -0.04899999871850014 0.013000000268220901 0.0
79.03500366210938 -2.9600000381469727 -0.6200000047683716 0.0
0.028999999165534973 -0.04899999871850014 0.013000000268220901 0.0
0.028999999165534973 -0.04899999871850014 0.013000000268220901 0.0
0.028999999165534973 -0.04899999871850014 0.013000000268220901 0.0
0.028999999165534973 -0.04899999871850014 0.013000000268220901 0.0
0.028999999165534973 -0.04899999871850014 0.013000000268220901 0.0
82.67400360107422 -3.2339999675750732 -0.546999990940094 1.0
0.028999999165534973 -0.04899999871850014 0.013000000268220901 0.0
0.028999999165534973 -0.04899999871850014 0.013000000268220901 0.0
0.028999999165534973 -0.04899999871850014 0.013000000268220901 0.0
0.028999999165534973 -0.04899999871850014 0.013000000268220901 0.0
0.028999999165534973 -0.04899999871850014 0.013000000268220901 0.0
0.028999999165534973 -0.04899999871850014 0.013000000268220901 0.0
304.79400634765625 -12.593999862670898 6.803999900817871 10.0
304.9070129394531 -12.638999938964844 5.198999881744385 12.0
304.7820129394531 -12.677000045776367 3.5880000591278076 12.0
0.028999999165534973 -0.04899999871850014 0.013000000268220901 0.0
0.028999999165534973 -0.04899999871850014 0.013000000268220901 0.0
0.028999999165534973 -0.04899999871850014 0.013000000268220901 0.0
0.028999999165534973 -0.04899999871850014 0.013000000268220901 0.0
254.7239990234375 -10.982000350952148 4.677000045776367 9.0
254.87600708007812 -11.02299976348877 3.3380000591278076 11.0
0.028999999165534973 -0.04899999871850014 0.013000000268220901 0.0
118.84200286865234 -5.196000099182129 0.296999990940094 1.0
0.028999999165534973 -0.04899999871850014 0.013000000268220901 0.0
0.028999999165534973 -0.04899999871850014 0.013000000268220901 0.0
0.028999999165534973 -0.04899999871850014 0.013000000268220901 0.0
0.028999999165534973 -0.04899999871850014 0.013000000268220901 0.0
0.028999999165534973 -0.04899999871850014 0.013000000268220901 0.0
0.028999999165534973 -0.04899999871850014 0.013000000268220901 0.0
0.028999999165534973 -0.04899999871850014 0.013000000268220901 0.0
0.028999999165534973 -0.04899999871850014 0.013000000268220901 0.0
0.028999999165534973 -0.04899999871850014 0.013000000268220901 0.0
0.028999999165534973 -0.04899999871850014 0.013000000268220901 0.0
0.028999999165534973 -0.04899999871850014 0.013000000268220901 0.0
147.80299377441406 -6.920000076293945 0.7739999890327454 2.0
0.028999999165534973 -0.04899999871850014 0.013000000268220901 0.0
204.81500244140625 -9.791000366210938 5.682000160217285 14.0
204.9720001220703 -9.821999549865723 4.607999801635742 12.0
204.87899780273438 -9.843000411987305 3.5309998989105225 15.0
204.9770050048828 -9.871999740600586 2.436000108718872 13.0
204.8719940185547 -9.890999794006348 1.3580000400543213 8.0
106.91500091552734 -5.197000026702881 0.15299999713897705 4.0
205.03399658203125 -10.116999626159668 5.980000019073486 5.0
0.028999999165534973 -0.04899999871850014 0.013000000268220901 0.0
0.028999999165534973 -0.04899999871850014 0.013000000268220901 0.0
0.028999999165534973 -0.04899999871850014 0.013000000268220901 0.0
0.028999999165534973 -0.04899999871850014 0.013000000268220901 0.0
110.34600067138672 -5.5269999504089355 0.3149999976158142 1.0
0.028999999165534973 -0.04899999871850014 0.013000000268220901 0.0
0.028999999165534973 -0.04899999871850014 0.013000000268220901 0.0
0.028999999165534973 -0.04899999871850014 0.013000000268220901 0.0
0.028999999165534973 -0.04899999871850014 0.013000000268220901 0.0
0.028999999165534973 -0.04899999871850014 0.013000000268220901 0.0
116.85099792480469 -6.0229997634887695 0.503000020980835 1.0
0.028999999165534973 -0.04899999871850014 0.013000000268220901 0.0
0.028999999165534973 -0.04899999871850014 0.013000000268220901 0.0
100.29399871826172 -5.289999961853027 2.1659998893737793 150.0
99.91100311279297 -5.281000137329102 1.625 150.0
94.23899841308594 -4.993000030517578 1.0399999618530273 6.0
104.81999969482422 -5.558000087738037 0.6060000061988831 1.0
154.947998046875 -8.33899974822998 5.197000026702881 12.0
154.99600219726562 -8.354999542236328 4.383999824523926 14.0
96.68399810791016 -5.238999843597412 2.2309999465942383 151.0
95.8010025024414 -5.199999809265137 1.7009999752044678 161.0
89.68900299072266 -4.880000114440918 1.1230000257492065 20.0
88.71199798583984 -4.835000038146973 0.6470000147819519 0.0
155.0050048828125 -8.557999610900879 5.429999828338623 8.0
155.03399658203125 -8.572999954223633 4.61899995803833 7.0
0.028999999165534973 -0.04899999871850014 0.013000000268220901 0.0
91.0 -5.067999839782715 1.753000020980835 183.0
85.18699645996094 -4.755000114440918 1.1959999799728394 2.0
85.1500015258789 -4.760000228881836 0.75 95.0
177.32899475097656 -10.02299976348877 6.478000164031982 17.0
177.36099243164062 -10.039999961853027 5.551000118255615 4.0
101.96800231933594 -5.801000118255615 2.6619999408721924 34.0
82.91899871826172 -4.734000205993652 1.725000023841858 0.0
85.96600341796875 -4.9120001792907715 1.3370000123977661 150.0
80.5780029296875 -4.61299991607666 0.8320000171661377 123.0
177.4459991455078 -10.265999794006348 6.751999855041504 6.0
177.19200134277344 -10.262999534606934 5.815999984741211 10.0
101.83599853515625 -5.927999973297119 2.813999891281128 1.0
83.0469970703125 -4.848999977111816 1.8550000190734863 151.0
0.028999999165534973 -0.04899999871850014 0.013000000268220901 0.0
78.20899963378906 -4.579999923706055 0.9300000071525574 6.0
176.3419952392578 -10.430000305175781 6.985000133514404 10.0
177.01199340820312 -10.482999801635742 6.084000110626221 8.0
95.23400115966797 -5.666999816894531 2.7790000438690186 1.0
78.15499877929688 -4.664999961853027 1.8660000562667847 60.0
78.28500366210938 -4.677999973297119 1.4609999656677246 150.0
77.66300201416016 -4.644999980926514 1.0429999828338623 150.0
168.78799438476562 -10.194000244140625 6.945000171661377 3.0
0.028999999165534973 -0.04899999871850014 0.013000000268220901 0.0
171.33099365234375 -10.368000030517578 5.25600004196167 16.0
76.11100006103516 -4.636000156402588 1.934999942779541 15.0
73.78199768066406 -4.5 1.4910000562667847 7.0
73.81999969482422 -4.506999969482422 1.1069999933242798 13.0
162.73899841308594 -10.029999732971191 6.953999996185303 15.0
94.31600189208984 -5.839000225067139 3.5399999618530273 2.0
81.41400146484375 -5.051000118255615 2.63100004196167 1.0
81.46399688720703 -5.057000160217285 2.1989998817443848 10.0
73.44599914550781 -4.567999839782715 1.6019999980926514 156.0
72.322998046875 -4.502999782562256 1.1990000009536743 151.0
162.32400512695312 -10.196999549865723 7.192999839782715 15.0
94.26799774169922 -5.945000171661377 3.690000057220459 4.0
157.05099487304688 -9.878999710083008 5.318999767303467 3.0
81.35099792480469 -5.145999908447266 2.3269999027252197 36.0
69.42900085449219 -4.4019999504089355 1.6260000467300415 143.0
69.25499725341797 -4.394999980926514 1.2610000371932983 150.0
87.14800262451172 -5.5980000495910645 4.006999969482422 36.0
87.12799835205078 -5.5980000495910645 3.549999952316284 13.0
156.5679931640625 -10.027999877929688 5.553999900817871 4.0
81.4020004272461 -5.238999843597412 2.4590001106262207 2.0
68.36900329589844 -4.409999847412109 1.7100000381469727 42.0
68.10299682617188 -4.396999835968018 1.3489999771118164 155.0
87.13999938964844 -5.691999912261963 4.1479997634887695 150.0
87.15499877929688 -5.696000099182129 3.693000078201294 150.0
94.24600219726562 -6.158999919891357 3.5 1.0
154.65699768066406 -10.079999923706055 4.914000034332275 2.0
81.2760009765625 -5.322999954223633 2.1630001068115234 37.0
64.74500274658203 -4.251999855041504 1.3890000581741333 27.0
87.13300323486328 -5.784999847412109 4.289000034332275 42.0
87.15599822998047 -5.789000034332275 3.8359999656677246 150.0
0.028999999165534973 -0.04899999871850014 0.013000000268220901 0.0
103.30999755859375 -6.85699987411499 3.4539999961853027 7.0
85.86799621582031 -5.709000110626221 2.4240000247955322 0.0
64.07599639892578 -4.2729997634887695 1.4780000448226929 190.0
0.028999999165534973 -0.04899999871850014 0.013000000268220901 0.0
87.13899993896484 -5.875999927520752 3.9769999980926514 150.0
87.14399719238281 -5.877999782562256 3.5199999809265137 21.0
103.16999816894531 -6.951000213623047 3.618000030517578 1.0
102.29299926757812 -6.894000053405762 3.053999900817871 128.0
62.459999084472656 -4.230000019073486 1.5440000295639038 150.0
101.45700073242188 -6.933000087738037 5.326000213623047 4.0
87.1259994506836 -5.960999965667725 4.11899995803833 150.0
87.1500015258789 -5.964000225067139 3.6649999618530273 150.0
94.35099792480469 -6.451000213623047 3.4649999141693115 5.0
102.16000366210938 -6.982999801635742 3.2179999351501465 150.0
65.83799743652344 -4.51800012588501 1.7350000143051147 0.0
94.28800201416016 -6.5370001792907715 5.10699987411499 6.0
87.11799621582031 -6.043000221252441 4.263000011444092 46.0
87.12899780273438 -6.043000221252441 3.809000015258789 150.0
134.79600524902344 -9.322999954223633 5.170000076293945 10.0
102.0790023803711 -7.072000026702881 3.385999917984009 3.0
78.27300262451172 -5.434000015258789 2.190000057220459 7.0
94.29499816894531 -6.623000144958496 5.263000011444092 11.0
101.4260025024414 -7.11899995803833 5.129000186920166 46.0
87.1240005493164 -6.120999813079834 3.953000068664551 150.0
87.16500091552734 -6.122000217437744 3.490000009536743 14.0
102.65899658203125 -7.201000213623047 3.5739998817443848 2.0
73.44200134277344 -5.164999961853027 2.177000045776367 0.0
87.01300048828125 -6.190999984741211 5.000999927520752 2.0
101.43499755859375 -7.206999778747559 5.298999786376953 13.0
87.12300109863281 -6.193999767303467 4.0970001220703125 150.0
87.13999938964844 -6.195000171661377 3.634000062942505 150.0
134.447998046875 -9.527000427246094 4.900000095367432 2.0
0.028999999165534973 -0.04899999871850014 0.013000000268220901 0.0
87.09700012207031 -6.269999980926514 5.1529998779296875 12.0
94.30500030517578 -6.7820000648498535 5.085000038146973 1.0
87.12999725341797 -6.265999794006348 4.24399995803833 57.0
87.12799835205078 -6.263000011444092 3.7799999713897705 150.0
134.28500366210938 -9.625 5.119999885559082 8.0
102.28900146484375 -7.340000152587891 3.36899995803833 10.0
87.0979995727539 -6.3379998207092285 5.298999786376953 7.0
87.13200378417969 -6.335999965667725 4.84499979019165 1.0
134.05099487304688 -9.720000267028809 6.75 2.0
87.125 -6.329999923706055 3.9260001182556152 150.0
87.13700103759766 -6.328000068664551 3.4709999561309814 11.0
102.30500030517578 -7.419000148773193 3.5420000553131104 7.0
57.08700180053711 -4.214000225067139 3.572999954223633 2.0
87.10199737548828 -6.400000095367432 4.991000175476074 4.0
94.21600341796875 -6.914000034332275 4.90500020980835 36.0
87.11900329589844 -6.39300012588501 4.072000026702881 150.0
87.1520004272461 -6.392000198364258 3.618000030517578 150.0
134.70199584960938 -9.847000122070312 4.885000228881836 4.0
55.402000427246094 -4.130000114440918 3.561000108718872 4.0
87.04299926757812 -6.455999851226807 5.133999824523926 12.0
94.24500274658203 -6.982999801635742 5.065000057220459 17.0
87.09300231933594 -6.451000213623047 4.2179999351501465 34.0
87.13899993896484 -6.449999809265137 3.765000104904175 141.0
134.18600463867188 -9.899999618530273 5.0920000076293945 4.0
53.308998107910156 -4.01200008392334 3.5179998874664307 8.0
79.71600341796875 -5.968999862670898 4.836999893188477 1.0
94.28399658203125 -7.045000076293945 5.2270002365112305 14.0
101.4280014038086 -7.570000171661377 5.080999851226807 7.0
87.12799835205078 -6.504000186920166 3.9119999408721924 60.0
87.125 -6.499000072479248 3.4570000171661377 5.0
51.74800109863281 -3.927999973297119 3.500999927520752 12.0
79.88700103759766 -6.0320000648498535 4.982999801635742 16.0
87.06600189208984 -6.563000202178955 4.973999977111816 4.0
101.44000244140625 -7.632999897003174 5.252999782562256 16.0
87.10299682617188 -6.554999828338623 4.057000160217285 11.0
87.13899993896484 -6.552000045776367 3.6040000915527344 3.0
49.51100158691406 -3.7899999618530273 3.434999942779541 12.0
79.64700317382812 -6.059999942779541 5.10099983215332 10.0
87.05999755859375 -6.611999988555908 5.119999885559082 13.0
87.0250015258789 -6.603000164031982 4.6539998054504395 7.0
103.9000015258789 -7.867000102996826 5.01200008392334 7.0
132.43299865722656 -10.003000259399414 5.692999839782715 10.0
48.066001892089844 -3.7049999237060547 3.4149999618530273 19.0
52.900001525878906 -4.070000171661377 3.4800000190734863 3.0
79.88500213623047 -6.11299991607666 4.833000183105469 1.0
87.0270004272461 -6.646999835968018 4.798999786376953 36.0
101.45800018310547 -7.734000205993652 5.061999797821045 12.0
133.23199462890625 -10.128999710083008 5.947999954223633 10.0
47.310001373291016 -3.6710000038146973 3.440999984741211 20.0
51.417999267578125 -3.9809999465942383 3.4690001010894775 11.0
79.84400177001953 -6.1479997634887695 4.961999893188477 14.0
87.02899932861328 -6.689000129699707 4.942999839782715 24.0
101.44000244140625 -7.7779998779296875 5.229000091552734 14.0
103.99700164794922 -7.965000152587891 4.816999912261963 1.0
46.84600067138672 -3.6570000648498535 3.4860000610351562 26.0
49.75899887084961 -3.875999927520752 3.440000057220459 16.0
65.98200225830078 -5.11899995803833 4.210999965667725 0.0
87.05500030517578 -6.728000164031982 5.090000152587891 14.0
87.02999877929688 -6.7170000076293945 4.631999969482422 15.0
101.43499755859375 -7.809999942779541 4.866000175476074 2.0
46.48899841308594 -3.6489999294281006 3.5360000133514404 27.0
48.1150016784668 -3.7699999809265137 3.4070000648498535 19.0
66.12100219726562 -5.15500020980835 4.329999923706055 2.0
79.947998046875 -6.2129998207092285 4.806000232696533 1.0
87.02899932861328 -6.75 4.776000022888184 25.0
101.46499633789062 -7.85099983215332 5.0370001792907715 19.0
46.16400146484375 -3.6410000324249268 3.5889999866485596 31.0
46.612998962402344 -3.6700000762939453 3.378000020980835 18.0
51.316001892089844 -4.03000020980835 3.4489998817443848 5.0
79.8479995727539 -6.234000205993652 4.934000015258789 15.0
87.06700134277344 -6.7820000648498535 4.921999931335449 9.0
101.4530029296875 -7.882999897003174 5.202000141143799 7.0
45.91699981689453 -3.63700008392334 3.6459999084472656 28.0
45.94499969482422 -3.632999897003174 3.4059998989105225 17.0
50.07500076293945 -3.9489998817443848 3.447999954223633 12.0
79.61900329589844 -6.239999771118164 5.051000118255615 14.0
87.0719985961914 -6.809000015258789 5.065000057220459 12.0
94.24700164794922 -7.354000091552734 4.98799991607666 11.0
45.68899917602539 -3.632999897003174 3.703000068664551 27.0
45.62300109863281 -3.621000051498413 3.4570000171661377 22.0
48.41400146484375 -3.8329999446868896 3.4140000343322754 19.0
72.68699645996094 -5.718999862670898 4.730000019073486 4.0
87.20700073242188 -6.841000080108643 5.215000152587891 5.0
94.26100158691406 -7.376999855041504 5.142000198364258 11.0
45.513999938964844 -3.630000114440918 3.763000011444092 30.0
45.46799850463867 -3.618000030517578 3.5190000534057617 23.0
46.979000091552734 -3.7309999465942383 3.388000011444092 18.0
51.084999084472656 -4.045000076293945 3.4089999198913574 1.0
79.86000061035156 -6.284999847412109 4.90500020980835 10.0
86.99299621582031 -6.828999996185303 4.885000228881836 3.0
45.34199905395508 -3.624000072479248 3.822000026702881 29.0
45.32400131225586 -3.617000102996826 3.5799999237060547 25.0
45.64899826049805 -3.634000062942505 3.365999937057495 17.0
50.03300094604492 -3.9719998836517334 3.4200000762939453 7.0
79.65699768066406 -6.2829999923706055 5.019000053405762 18.0
87.06099700927734 -6.8480000495910645 5.0279998779296875 12.0
45.25199890136719 -3.625 3.88700008392334 29.0
45.20000076293945 -3.61299991607666 3.6419999599456787 25.0
45.263999938964844 -3.609999895095825 3.4079999923706055 23.0
48.584999084472656 -3.865000009536743 3.3970000743865967 19.0
72.69499969482422 -5.747000217437744 4.696000099182129 2.0
79.80599975585938 -6.290999889373779 4.734000205993652 1.0
45.17100143432617 -3.625 3.9509999752044678 31.0
45.14400100708008 -3.61299991607666 3.7090001106262207 28.0
45.16400146484375 -3.6080000400543213 3.4730000495910645 29.0
47.31399917602539 -3.7690000534057617 3.384000062942505 18.0
72.7030029296875 -5.754000186920166 4.810999870300293 11.0
79.89600372314453 -6.303999900817871 4.866000175476074 8.0
45.14799880981445 -3.625 4.020999908447266 30.0
45.130001068115234 -3.615999937057495 3.7790000438690186 25.0
45.159000396728516 -3.6110000610351562 3.5429999828338623 29.0
45.819000244140625 -3.6540000438690186 3.3480000495910645 16.0
50.39099884033203 -4.004000186920166 3.4159998893737793 5.0
79.8489990234375 -6.303999900817871 4.986000061035156 17.0
45.1349983215332 -3.625999927520752 4.090000152587891 30.0
45.143001556396484 -3.618000030517578 3.8510000705718994 29.0
45.15399932861328 -3.6110000610351562 3.61299991607666 29.0
45.25899887084961 -3.609999895095825 3.377000093460083 20.0
