# .PCD v0.7 - Point Cloud Data file format
VERSION 0.7
FIELDS x y z intensity
SIZE 4 4 4 4 
TYPE F F F F 
COUNT 1 1 1 1 
WIDTH 794
HEIGHT 1
VIEWPOINT 0 0 0 1 0 0 0
POINTS 794
DATA ascii
51.48099899291992 3.5820000171661377 1.4780000448226929 0.0
97.05400085449219 6.836999893188477 2.2249999046325684 9.0
98.58399963378906 6.982999801635742 1.7109999656677246 1.0
98.01799774169922 6.980000019073486 1.1540000438690186 52.0
81.35700225830078 5.769000053405762 3.2190001010894775 5.0
80.97599792480469 5.770999908447266 2.75 3.0
50.944000244140625 3.628999948501587 1.4490000009536743 0.0
97.05400085449219 6.999000072479248 2.2009999752044678 14.0
97.51300048828125 7.067999839782715 1.6660000085830688 11.0
96.875 7.059000015258789 1.1139999628067017 46.0
80.02799987792969 5.807000160217285 3.1440000534057617 6.0
81.07099914550781 5.9120001792907715 2.7309999465942383 6.0
97.88099670410156 7.183000087738037 2.746999979019165 15.0
96.96600341796875 7.1519999504089355 2.1710000038146973 18.0
97.21700286865234 7.205999851226807 1.6319999694824219 14.0
95.822998046875 7.13700008392334 1.0729999542236328 35.0
80.02999877929688 5.934999942779541 3.11899995803833 11.0
81.06099700927734 6.040999889373779 2.7039999961853027 16.0
97.73200225830078 7.328999996185303 2.7119998931884766 13.0
90.83599853515625 6.8429999351501465 2.003999948501587 4.0
93.125 7.047999858856201 1.5329999923706055 8.0
94.73799896240234 7.206999778747559 1.0299999713897705 38.0
79.677001953125 6.039000034332275 3.078000068664551 16.0
80.9489974975586 6.163000106811523 2.6730000972747803 7.0
80.39600372314453 6.150000095367432 2.203000068664551 1.0
90.9020004272461 6.992000102996826 1.9730000495910645 10.0
93.53199768066406 7.229000091552734 1.5049999952316284 9.0
93.74099731445312 7.2789998054504395 0.984000027179718 37.0
79.76499938964844 6.169000148773193 3.0510001182556152 17.0
80.92900085449219 6.289000034332275 2.6419999599456787 12.0
73.85199737548828 5.760000228881836 1.996000051498413 0.0
79.87100219726562 6.26200008392334 1.7029999494552612 0.0
91.64299774169922 7.224999904632568 1.437999963760376 10.0
92.7509994506836 7.3460001945495605 0.9340000152587891 35.0
79.65799713134766 6.285999774932861 3.013000011444092 12.0
48.70500183105469 3.8380000591278076 1.5740000009536743 0.0
74.20500183105469 5.9029998779296875 1.9739999771118164 1.0
80.16400146484375 6.4079999923706055 1.6740000247955322 7.0
91.60600280761719 7.361999988555908 1.3980000019073486 18.0
91.86299896240234 7.415999889373779 0.8859999775886536 35.0
72.9010009765625 5.859000205993652 2.7249999046325684 3.0
48.03499984741211 3.8589999675750732 1.5299999713897705 0.0
74.25199890136719 6.01800012588501 1.940999984741211 10.0
80.2760009765625 6.539000034332275 1.6390000581741333 15.0
80.91400146484375 6.61899995803833 1.1979999542236328 5.0
91.02899932861328 7.485000133514404 0.8339999914169312 35.0
73.02200317382812 5.978000164031982 2.694999933242798 9.0
47.45600128173828 3.881999969482422 1.4880000352859497 0.0
80.37300109863281 6.638999938964844 2.062000036239624 12.0
80.49199676513672 6.676000118255615 1.6039999723434448 13.0
80.96800231933594 6.74399995803833 1.156999945640564 9.0
90.23899841308594 7.552999973297119 0.781000018119812 28.0
72.62999725341797 6.052000045776367 2.6429998874664307 17.0
47.180999755859375 3.927999973297119 1.4539999961853027 0.0
72.60900115966797 6.0980000495910645 1.8250000476837158 6.0
80.21199798583984 6.770999908447266 1.555999994277954 12.0
80.95099639892578 6.860000133514404 1.1150000095367432 1.0
43.79399871826172 3.7019999027252197 0.36000001430511475 3.0
43.143001556396484 3.635999917984009 1.5509999990463257 0.0
46.707000732421875 3.9560000896453857 1.4149999618530273 0.0
72.66000366210938 6.205999851226807 1.7860000133514404 7.0
73.42900085449219 6.297999858856201 1.3839999437332153 12.0
43.823001861572266 3.750999927520752 0.5830000042915344 0.0
43.35599899291992 3.7239999771118164 0.3330000042915344 2.0
43.125 3.694999933242798 1.5260000228881836 3.0
72.1449966430664 6.238999843597412 2.138000011444092 18.0
72.22100067138672 6.269000053405762 1.7330000400543213 17.0
73.36199951171875 6.39300012588501 1.3380000591278076 12.0
42.98400115966797 3.73799991607666 0.546999990940094 0.0
42.80099868774414 3.7360000610351562 0.30300000309944153 2.0
43.09400177001953 3.750999927520752 1.4980000257492065 4.0
72.13600158691406 6.336999893188477 2.0940001010894775 18.0
72.46299743652344 6.388999938964844 1.6929999589920044 23.0
43.35599899291992 3.815000057220459 0.7680000066757202 1.0
43.67599868774414 3.8580000400543213 0.5270000100135803 4.0
42.5 3.7669999599456787 0.27300000190734863 150.0
43.053001403808594 3.805000066757202 1.468000054359436 6.0
42.92499923706055 3.806999921798706 1.222000002861023 4.0
42.935001373291016 3.821000099182129 0.9789999723434448 5.0
42.86899948120117 3.8289999961853027 0.7310000061988831 6.0
42.88999938964844 3.8440001010894775 0.49000000953674316 11.0
42.500999450683594 3.822999954223633 0.2460000067949295 150.0
42.85200119018555 3.8429999351501465 1.4329999685287476 9.0
42.8390007019043 3.8550000190734863 1.190000057220459 13.0
42.83000183105469 3.868000030517578 0.9490000009536743 9.0
42.816001892089844 3.880000114440918 0.7020000219345093 11.0
42.81700134277344 3.8929998874664307 0.45899999141693115 12.0
42.762001037597656 3.9030001163482666 0.21699999272823334 11.0
42.797000885009766 3.8929998874664307 1.4019999504089355 11.0
42.7859992980957 3.9040000438690186 1.159000039100647 13.0
42.766998291015625 3.9159998893737793 0.9160000085830688 14.0
42.78499984741211 3.930999994277954 0.6700000166893005 14.0
42.779998779296875 3.943000078201294 0.42800000309944153 13.0
42.78300094604492 3.9560000896453857 0.1860000044107437 12.0
42.76599884033203 3.944000005722046 1.3700000047683716 11.0
42.763999938964844 3.9549999237060547 1.1269999742507935 9.0
42.76300048828125 3.9690001010894775 0.8849999904632568 15.0
42.75299835205078 3.9800000190734863 0.6380000114440918 13.0
42.77199935913086 3.99399995803833 0.3970000147819519 14.0
42.75899887084961 4.006999969482422 0.1550000011920929 16.0
42.731998443603516 3.990999937057495 1.3359999656677246 6.0
42.75400161743164 4.005000114440918 1.093999981880188 14.0
42.74800109863281 4.01800012588501 0.8529999852180481 15.0
42.74399948120117 4.03000020980835 0.6060000061988831 14.0
42.770999908447266 4.045000076293945 0.36399999260902405 25.0
42.78300094604492 4.059000015258789 0.12200000137090683 12.0
42.775001525878906 4.046000003814697 1.3049999475479126 12.0
42.75400161743164 4.054999828338623 1.062000036239624 14.0
42.77399826049805 4.068999767303467 0.8190000057220459 13.0
42.77899932861328 4.081999778747559 0.5720000267028809 13.0
42.79499816894531 4.0970001220703125 0.33000001311302185 11.0
42.79199981689453 4.109000205993652 0.08799999952316284 11.0
42.763999938964844 4.0929999351501465 1.2699999809265137 12.0
42.77399826049805 4.105999946594238 1.0269999504089355 12.0
42.78900146484375 4.11899995803833 0.7850000262260437 13.0
42.790000915527344 4.13100004196167 0.5379999876022339 11.0
42.80799865722656 4.145999908447266 0.29600000381469727 8.0
42.83700180053711 4.160999774932861 0.05299999937415123 10.0
42.816001892089844 4.145999908447266 1.2350000143051147 11.0
42.82400131225586 4.1570000648498535 0.9929999709129333 11.0
42.82699966430664 4.170000076293945 0.75 10.0
42.84600067138672 4.183000087738037 0.503000020980835 10.0
42.888999938964844 4.199999809265137 0.2590000033378601 4.0
42.85900115966797 4.209000110626221 0.017000000923871994 4.0
42.85300064086914 4.193999767303467 1.2000000476837158 8.0
42.84000015258789 4.203999996185303 0.9580000042915344 4.0
42.847999572753906 4.216000080108643 0.7149999737739563 2.0
42.8650016784668 4.229000091552734 0.4650000035762787 0.0
71.88700103759766 7.150000095367432 0.3659999966621399 11.0
81.90399932861328 8.177000045776367 -0.04899999871850014 55.0
42.948001861572266 4.247000217437744 1.1660000085830688 3.0
70.83300018310547 7.058000087738037 1.5140000581741333 11.0
70.85900115966797 7.078000068664551 1.1100000143051147 16.0
71.55799865722656 7.168000221252441 0.7089999914169312 18.0
71.70999908447266 7.203999996185303 0.3019999861717224 15.0
81.36900329589844 8.204000473022461 -0.12099999934434891 50.0
69.34700012207031 6.958000183105469 1.8140000104904175 15.0
70.47100067138672 7.090000152587891 1.4420000314712524 15.0
71.03600311279297 7.164999961853027 1.0499999523162842 17.0
71.18599700927734 7.199999809265137 0.6389999985694885 16.0
71.68000030517578 7.269000053405762 0.2370000034570694 0.0
80.91600036621094 8.234000205993652 -0.1940000057220459 42.0
69.88600158691406 7.077000141143799 1.7640000581741333 18.0
70.47200012207031 7.1539998054504395 1.3769999742507935 15.0
70.58399963378906 7.184000015258789 0.9779999852180481 17.0
71.1240005493164 7.257999897003174 0.5740000009536743 16.0
80.58799743652344 8.251999855041504 0.1889999955892563 48.0
80.45600128173828 8.260000228881836 -0.2680000066757202 50.0
70.05999755859375 7.1579999923706055 1.7039999961853027 17.0
70.49299621582031 7.21999979019165 1.312000036239624 18.0
70.79299926757812 7.269000053405762 0.9139999747276306 13.0
70.92500305175781 7.298999786376953 0.5059999823570251 9.0
80.21700286865234 8.284000396728516 0.11400000005960464 51.0
80.09300231933594 8.293000221252441 -0.3409999907016754 42.0
70.12000274658203 7.223999977111816 1.6369999647140503 18.0
39.30400085449219 4.033999919891357 0.6980000138282776 1.0
39.242000579833984 4.0370001792907715 0.4729999899864197 2.0
71.0770034790039 7.374000072479248 0.43799999356269836 9.0
79.83499908447266 8.310999870300293 0.03500000014901161 41.0
79.73999786376953 8.321999549865723 -0.4180000126361847 34.0
70.25599670410156 7.294000148773193 1.5709999799728394 18.0
39.32899856567383 4.067999839782715 0.6600000262260437 2.0
39.25600051879883 4.070000171661377 0.4350000023841858 1.0
70.70899963378906 7.392000198364258 0.36500000953674316 2.0
79.49299621582031 8.336999893188477 -0.041999999433755875 44.0
79.37699890136719 8.345999717712402 -0.49399998784065247 44.0
39.36000061035156 4.0929999351501465 0.8460000157356262 3.0
39.316001892089844 4.0980000495910645 0.6209999918937683 0.0
39.15999984741211 4.091000080108643 0.3959999978542328 0.0
70.54199981689453 7.427000045776367 0.2939999997615814 2.0
79.21399688720703 8.368000030517578 -0.12200000137090683 45.0
79.09100341796875 8.375 -0.5720000267028809 38.0
39.35900115966797 4.122000217437744 0.8050000071525574 2.0
39.08599853515625 4.10099983215332 0.5770000219345093 0.0
39.15700149536133 4.118000030517578 0.35499998927116394 2.0
78.94599914550781 8.37600040435791 0.24799999594688416 46.0
78.85800170898438 8.38599967956543 -0.2029999941587448 41.0
78.76499938964844 8.395999908447266 -0.6489999890327454 35.0
39.22700119018555 4.135000228881836 0.7630000114440918 0.0
39.12200164794922 4.131999969482422 0.5379999876022339 6.0
70.67500305175781 7.5229997634887695 0.5609999895095825 17.0
78.62999725341797 8.395000457763672 0.16599999368190765 44.0
78.5739974975586 8.407999992370605 -0.2809999883174896 38.0
78.48300170898438 8.416999816894531 -0.7289999723434448 39.0
39.125 4.1479997634887695 0.7200000286102295 4.0
38.99300003051758 4.142000198364258 0.4959999918937683 7.0
70.77100372314453 7.578999996185303 0.4869999885559082 19.0
78.36599731445312 8.414999961853027 0.0820000022649765 46.0
78.30699920654297 8.427000045776367 -0.3630000054836273 41.0
78.18800354003906 8.432999610900879 -0.8080000281333923 44.0
39.13600158691406 4.172999858856201 0.6790000200271606 5.0
38.91699981689453 4.1579999923706055 0.453000009059906 10.0
70.96099853515625 7.640999794006348 0.4129999876022339 4.0
78.11799621582031 8.4350004196167 -0.0010000000474974513 49.0
78.05999755859375 8.446000099182129 -0.4449999928474426 45.0
75.26599884033203 8.15999984741211 -0.8600000143051147 3.0
39.07899856567383 4.188000202178955 0.6349999904632568 4.0
38.90599822998047 4.177999973297119 0.41100001335144043 6.0
38.612998962402344 4.1539998054504395 0.18700000643730164 0.0
77.91300201416016 8.454999923706055 -0.0860000029206276 49.0
77.79399871826172 8.458999633789062 -0.5270000100135803 48.0
74.96600341796875 8.166000366210938 -0.9380000233650208 9.0
38.99700164794922 4.198999881744385 0.5929999947547913 4.0
39.01599884033203 4.209000110626221 0.3700000047683716 1.0
70.83200073242188 7.701000213623047 0.257999986410141 10.0
77.66100311279297 8.46500015258789 -0.17100000381469727 41.0
77.59300231933594 8.475000381469727 -0.6100000143051147 38.0
74.75499725341797 8.178999900817871 -1.0149999856948853 13.0
39.00600051879883 4.218999862670898 0.550000011920929 2.0
38.974998474121094 4.223999977111816 0.32600000500679016 2.0
38.689998626708984 4.198999881744385 0.10300000011920929 0.0
77.45899963378906 8.47700023651123 -0.2540000081062317 46.0
77.36299896240234 8.482999801635742 -0.6940000057220459 47.0
74.56900024414062 8.190999984741211 -1.093999981880188 14.0
38.902000427246094 4.223999977111816 0.5049999952316284 3.0
38.83100128173828 4.2230000495910645 0.28299999237060547 5.0
71.27100372314453 7.809999942779541 0.10300000011920929 8.0
77.27200317382812 8.48900032043457 -0.3370000123977661 38.0
77.18699645996094 8.494000434875488 -0.777999997138977 41.0
74.41500091552734 8.20300006866455 -1.1749999523162842 14.0
38.893001556396484 4.236999988555908 0.4620000123977661 8.0
38.80699920654297 4.234000205993652 0.23899999260902405 5.0
71.24299621582031 7.833000183105469 0.024000000208616257 2.0
77.10199737548828 8.496000289916992 -0.4230000078678131 36.0
74.47599792480469 8.220000267028809 -0.8330000042915344 0.0
74.31999969482422 8.218000411987305 -1.2569999694824219 14.0
38.840999603271484 4.24399995803833 0.4189999997615814 9.0
38.6870002746582 4.232999801635742 0.19599999487400055 6.0
77.0459976196289 8.49899959564209 -0.05999999865889549 41.0
76.95999908447266 8.503999710083008 -0.5059999823570251 41.0
74.34600067138672 8.227999687194824 -0.9129999876022339 6.0
74.19499969482422 8.22700023651123 -1.3370000123977661 16.0
38.792999267578125 4.249000072479248 0.375 8.0
38.61399841308594 4.236000061035156 0.15199999511241913 7.0
76.90399932861328 8.505000114440918 -0.1469999998807907 47.0
76.84300231933594 8.51099967956543 -0.5910000205039978 40.0
74.11799621582031 8.222000122070312 -0.9940000176429749 11.0
74.09300231933594 8.234000205993652 -1.4170000553131104 17.0
38.75699996948242 4.254000186920166 0.3310000002384186 4.0
38.56700134277344 4.238999843597412 0.10899999737739563 2.0
38.27199935913086 4.2129998207092285 -0.10999999940395355 2.0
76.73699951171875 8.515999794006348 -0.6769999861717224 43.0
74.07099914550781 8.232999801635742 -1.0770000219345093 14.0
74.0 8.23799991607666 -1.4989999532699585 16.0
38.71099853515625 4.256999969482422 0.28700000047683716 5.0
38.46500015258789 4.236000061035156 0.06400000303983688 4.0
38.25400161743164 4.2179999351501465 -0.15299999713897705 4.0
76.62799835205078 8.517000198364258 -0.7630000114440918 47.0
74.0009994506836 8.237000465393066 -1.159999966621399 17.0
73.92900085449219 8.241999626159668 -1.5829999446868896 15.0
38.70199966430664 4.261000156402588 0.24300000071525574 4.0
38.48099899291992 4.242000102996826 0.020999999716877937 1.0
38.22600173950195 4.21999979019165 -0.19599999487400055 1.0
73.91100311279297 8.222000122070312 -0.8199999928474426 0.0
73.94000244140625 8.23900032043457 -1.2450000047683716 16.0
73.87000274658203 8.244000434875488 -1.6649999618530273 17.0
38.652000427246094 4.258999824523926 0.1979999989271164 5.0
38.4739990234375 4.24399995803833 -0.023000000044703484 0.0
76.60700225830078 8.517000198364258 -0.492000013589859 49.0
74.04199981689453 8.241999626159668 -0.906000018119812 6.0
73.91000366210938 8.239999771118164 -1.3279999494552612 18.0
73.8489990234375 8.246999740600586 -1.7489999532699585 16.0
38.5989990234375 4.255000114440918 0.15399999916553497 6.0
76.66200256347656 8.515000343322754 -0.1420000046491623 48.0
38.185001373291016 4.21999979019165 -0.28299999237060547 0.0
73.91699981689453 8.229999542236328 -0.9890000224113464 11.0
73.89299774169922 8.241000175476074 -1.4110000133514404 16.0
73.84600067138672 8.248000144958496 -1.8329999446868896 16.0
38.54399871826172 4.248000144958496 0.10999999940395355 5.0
38.25199890136719 4.2210001945495605 -0.10999999940395355 2.0
76.5999984741211 8.519000053405762 -0.6660000085830688 49.0
73.92900085449219 8.230999946594238 -1.0740000009536743 13.0
73.88600158691406 8.23900032043457 -1.49399995803833 16.0
73.82499694824219 8.244000434875488 -1.9170000553131104 16.0
38.4739990234375 4.238999843597412 0.06599999964237213 4.0
38.26100158691406 4.21999979019165 -0.1509999930858612 4.0
76.60900115966797 8.515000343322754 -0.7519999742507935 49.0
73.95099639892578 8.229000091552734 -1.156999945640564 16.0
73.91000366210938 8.234999656677246 -1.5789999961853027 17.0
73.76799774169922 8.230999946594238 -2.0 21.0
38.417999267578125 4.229000091552734 0.023000000044703484 1.0
38.21099853515625 4.210000038146973 -0.1940000057220459 1.0
74.0 8.215999603271484 -0.8109999895095825 0.0
74.00399780273438 8.22700023651123 -1.2419999837875366 14.0
73.96600341796875 8.232999801635742 -1.6649999618530273 17.0
73.6510009765625 8.208999633789062 -2.0789999961853027 24.0
76.85700225830078 8.503000259399414 -0.050999999046325684 34.0
76.74099731445312 8.50100040435791 -0.48899999260902405 48.0
74.15699768066406 8.222000122070312 -0.8960000276565552 7.0
74.06800079345703 8.222000122070312 -1.3270000219345093 16.0
74.01000213623047 8.22700023651123 -1.7480000257492065 15.0
66.86000061035156 7.435999870300293 -1.9620000123977661 0.0
76.89800262451172 8.494000434875488 -0.13699999451637268 44.0
76.87000274658203 8.5 -0.5759999752044678 41.0
74.17400360107422 8.208999633789062 -0.9789999723434448 11.0
74.16500091552734 8.218000411987305 -1.4110000133514404 16.0
74.09100341796875 8.220000267028809 -1.8339999914169312 16.0
66.88500213623047 7.426000118255615 -2.0360000133514404 5.0
38.249000549316406 4.189000129699707 -0.10499999672174454 1.0
76.92900085449219 8.48799991607666 -0.6620000004768372 36.0
74.25199890136719 8.199000358581543 -1.0640000104904175 13.0
74.25 8.208999633789062 -1.4950000047683716 14.0
74.18499755859375 8.211999893188477 -1.9170000553131104 17.0
66.84700012207031 7.4039998054504395 -2.109999895095825 14.0
77.15399932861328 8.482999801635742 -0.3070000112056732 34.0
77.08100128173828 8.484000205993652 -0.7480000257492065 38.0
74.40299987792969 8.196000099182129 -1.1469999551773071 14.0
74.35299682617188 8.199000358581543 -1.5779999494552612 14.0
73.9260025024414 8.16100025177002 -1.9930000305175781 17.0
66.66100311279297 7.36299991607666 -2.177000045776367 29.0
77.29299926757812 8.473999977111816 -0.3930000066757202 33.0
74.9540023803711 8.222000122070312 -0.8100000023841858 0.0
74.50900268554688 8.182000160217285 -1.2309999465942383 14.0
74.49400329589844 8.189000129699707 -1.6640000343322754 14.0
73.70700073242188 8.111000061035156 -2.068000078201294 22.0
66.41400146484375 7.311999797821045 -2.24399995803833 25.0
77.46700286865234 8.463000297546387 -0.47999998927116394 38.0
74.75599670410156 8.17300033569336 -0.8889999985694885 6.0
74.69100189208984 8.17300033569336 -1.315999984741211 13.0
74.66400146484375 8.178999900817871 -1.75 16.0
73.67400360107422 8.079000473022461 -2.1480000019073486 19.0
65.85800170898438 7.224999904632568 -2.2950000762939453 28.0
77.62699890136719 8.449000358581543 -0.5659999847412109 44.0
74.86900329589844 8.154999732971191 -0.972000002861023 11.0
74.83999633789062 8.157999992370605 -1.3990000486373901 14.0
74.81800079345703 8.163999557495117 -1.8329999446868896 14.0
67.35900115966797 7.354000091552734 -2.0350000858306885 1.0
47.393001556396484 5.164000034332275 -1.6979999542236328 0.0
77.81700134277344 8.434000015258789 -0.6489999890327454 40.0
75.05000305175781 8.140000343322754 -1.0540000200271606 13.0
75.0270004272461 8.142999649047852 -1.4819999933242798 14.0
74.9469985961914 8.142999649047852 -1.9170000553131104 15.0
67.27999877929688 7.313000202178955 -2.1040000915527344 8.0
43.42300033569336 4.703999996185303 -1.6019999980926514 0.0
78.04900360107422 8.420999526977539 -0.7329999804496765 39.0
75.26100158691406 8.12399959564209 -1.1380000114440918 13.0
75.21900177001953 8.125 -1.565999984741211 15.0
73.60700225830078 7.958000183105469 -1.9600000381469727 8.0
67.22100067138672 7.269999980926514 -2.1740000247955322 16.0
43.569000244140625 4.697999954223633 -1.652999997138977 1.0
75.5469970703125 8.107000350952148 -0.7900000214576721 0.0
75.47699737548828 8.104999542236328 -1.218999981880188 14.0
75.45800018310547 8.109999656677246 -1.649999976158142 15.0
73.84300231933594 7.940999984741211 -2.0439999103546143 7.0
66.98100280761719 7.204999923706055 -2.234999895095825 20.0
41.84299850463867 4.485000133514404 -1.63100004196167 0.0
75.76000213623047 8.085000038146973 -0.8700000047683716 7.0
75.72799682617188 8.086999893188477 -1.3020000457763672 13.0
75.66400146484375 8.086000442504883 -1.7330000400543213 13.0
69.14199829101562 7.389999866485596 -1.9839999675750732 2.0
66.41000366210938 7.103000164031982 -2.2850000858306885 30.0
31.552000045776367 3.3489999771118164 -1.2589999437332153 0.0
75.94000244140625 8.055999755859375 -0.949999988079071 12.0
75.9749984741211 8.0649995803833 -1.3849999904632568 14.0
75.97200012207031 8.071000099182129 -1.8170000314712524 16.0
69.11100006103516 7.3429999351501465 -2.053999900817871 8.0
65.96800231933594 7.013000011444092 -2.3369998931884766 22.0
31.389999389648438 3.312000036239624 -1.284000039100647 1.0
76.23200225830078 8.03600025177002 -1.031000018119812 13.0
76.27400207519531 8.045000076293945 -1.465999960899353 11.0
76.20700073242188 8.043000221252441 -1.8990000486373901 20.0
68.61399841308594 7.241000175476074 -2.1070001125335693 17.0
48.345001220703125 5.091000080108643 -1.7569999694824219 0.0
31.409000396728516 3.2909998893737793 -1.3170000314712524 2.0
76.55799865722656 8.015000343322754 -1.1100000143051147 13.0
76.5459976196289 8.017999649047852 -1.5460000038146973 13.0
76.48300170898438 8.015999794006348 -1.9819999933242798 18.0
68.33399963378906 7.1620001792907715 -2.1659998893737793 20.0
37.29800033569336 3.885999917984009 -1.3899999856948853 0.0
31.06599998474121 3.2309999465942383 -1.3320000171661377 5.0
42.8129997253418 4.425000190734863 -0.6570000052452087 2.0
76.91400146484375 7.995999813079834 -1.6299999952316284 15.0
73.99700164794922 7.696000099182129 -1.9889999628067017 0.0
68.03800201416016 7.076000213623047 -2.2230000495910645 30.0
33.77000045776367 3.486999988555908 -1.2899999618530273 0.0
31.545000076293945 3.25600004196167 -1.3839999437332153 8.0
42.8390007019043 4.39300012588501 -0.6990000009536743 78.0
77.28700256347656 7.9730000495910645 -1.7100000381469727 15.0
74.33100128173828 7.670000076293945 -2.069000005722046 3.0
67.11399841308594 6.922999858856201 -2.25600004196167 18.0
33.494998931884766 3.430999994277954 -1.309999942779541 4.0
31.465999603271484 3.2219998836517334 -1.409000039100647 8.0
42.814998626708984 4.354000091552734 -0.7379999756813049 17.0
42.986000061035156 4.374000072479248 -0.9850000143051147 0.0
69.54000091552734 7.111999988555908 -1.9989999532699585 2.0
42.85300064086914 4.363999843597412 -1.4759999513626099 0.0
33.665000915527344 3.4189999103546143 -1.3480000495910645 11.0
31.52400016784668 3.200000047683716 -1.440999984741211 11.0
42.81999969482422 4.316999912261963 -0.7770000100135803 10.0
43.02799987792969 4.339000225067139 -1.0260000228881836 2.0
42.91899871826172 4.329999923706055 -1.2680000066757202 2.0
42.80400085449219 4.321000099182129 -1.5119999647140503 8.0
33.72600173950195 3.3949999809265137 -1.38100004196167 12.0
31.259000778198242 3.1449999809265137 -1.4570000171661377 8.0
42.887001037597656 4.2829999923706055 -0.8169999718666077 8.0
42.89799880981445 4.285999774932861 -1.0609999895095825 7.0
42.902000427246094 4.2870001792907715 -1.3049999475479126 12.0
42.86399841308594 4.285999774932861 -1.5520000457763672 7.0
32.95500183105469 3.2850000858306885 -1.378000020980835 9.0
30.895000457763672 3.078000068664551 -1.465999960899353 8.0
42.97100067138672 4.25 -0.8550000190734863 6.0
42.867000579833984 4.241000175476074 -1.097000002861023 17.0
42.9630012512207 4.250999927520752 -1.343000054359436 15.0
33.999000549316406 3.3559999465942383 -1.2569999694824219 0.0
32.24800109863281 3.180999994277954 -1.375 8.0
30.91200065612793 3.0490000247955322 -1.49399995803833 8.0
42.797000885009766 4.190000057220459 -0.8880000114440918 11.0
42.801998138427734 4.191999912261963 -1.13100004196167 15.0
42.93000030517578 4.204999923706055 -1.378000020980835 12.0
33.19499969482422 3.240999937057495 -1.253999948501587 8.0
31.926000595092773 3.117000102996826 -1.3869999647140503 8.0
30.972999572753906 3.0220000743865967 -1.5219999551773071 10.0
42.74800109863281 4.139999866485596 -0.921999990940094 26.0
42.814998626708984 4.1479997634887695 -1.1660000085830688 12.0
42.83000183105469 4.14900016784668 -1.409999966621399 10.0
33.512001037597656 3.236999988555908 -1.2940000295639038 12.0
31.7450008392334 3.063999891281128 -1.4049999713897705 15.0
30.836000442504883 2.9760000705718994 -1.5410000085830688 11.0
42.71099853515625 4.090000152587891 -0.9549999833106995 22.0
42.7760009765625 4.0970001220703125 -1.1990000009536743 13.0
42.790000915527344 4.098999977111816 -1.4420000314712524 12.0
33.948001861572266 3.243000030517578 -1.3370000123977661 22.0
31.89699935913086 3.0439999103546143 -1.4359999895095825 10.0
30.63599967956543 2.921999931335449 -1.5540000200271606 9.0
42.72200012207031 4.044000148773193 -0.9879999756813049 20.0
42.76300048828125 4.046999931335449 -1.2309999465942383 15.0
35.91600036621094 3.3919999599456787 -1.2350000143051147 0.0
33.66600036621094 3.1760001182556152 -1.3509999513626099 22.0
31.83300018310547 3.000999927520752 -1.4589999914169312 13.0
30.625999450683594 2.885999917984009 -1.5759999752044678 7.0
42.722999572753906 3.99399995803833 -1.0199999809265137 26.0
42.72600173950195 3.99399995803833 -1.2630000114440918 25.0
35.2239990234375 3.2839999198913574 -1.2380000352859497 7.0
33.409000396728516 3.11299991607666 -1.3650000095367432 16.0
31.648000717163086 2.947000026702881 -1.472000002861023 8.0
27.79199981689453 2.5820000171661377 -1.4490000009536743 0.0
42.733001708984375 3.943000078201294 -1.0509999990463257 22.0
42.665000915527344 3.937000036239624 -1.2899999618530273 24.0
34.95399856567383 3.2170000076293945 -1.2519999742507935 10.0
33.2859992980957 3.061000108718872 -1.3839999437332153 13.0
31.60099983215332 2.9019999504089355 -1.4919999837875366 8.0
28.05699920654297 2.572000026702881 -1.4819999933242798 2.0
42.792999267578125 3.8959999084472656 -1.0809999704360962 11.0
42.67100143432617 3.884000062942505 -1.3200000524520874 22.0
34.540000915527344 3.134000062942505 -1.2610000371932983 13.0
31.222000122070312 2.828000068664551 -1.319000005722046 4.0
31.958999633789062 2.8970000743865967 -1.531000018119812 8.0
28.33799934387207 2.562000036239624 -1.5169999599456787 3.0
42.827999114990234 3.8459999561309814 -1.1089999675750732 10.0
42.707000732421875 3.8340001106262207 -1.3489999771118164 15.0
34.35900115966797 3.0739998817443848 -1.2760000228881836 15.0
31.159000396728516 2.7829999923706055 -1.3359999656677246 7.0
31.524999618530273 2.816999912261963 -1.5299999713897705 8.0
28.55299949645996 2.5460000038146973 -1.5449999570846558 3.0
42.90599822998047 3.7980000972747803 -1.1390000581741333 5.0
42.66600036621094 3.7760000228881836 -1.371999979019165 7.0
34.21200180053711 3.0169999599456787 -1.2920000553131104 21.0
31.166000366210938 2.743000030517578 -1.3550000190734863 7.0
31.34000015258789 2.757999897003174 -1.5390000343322754 7.0
28.715999603271484 2.5239999294281006 -1.5729999542236328 3.0
74.9020004272461 6.572000026702881 -2.0429999828338623 13.0
39.111000061035156 3.4049999713897705 -1.281000018119812 0.0
34.185001373291016 2.9690001010894775 -1.309999942779541 23.0
31.101999282836914 2.696000099182129 -1.371000051498413 2.0
28.8799991607666 2.499000072479248 -1.434999942779541 0.0
28.7189998626709 2.484999895095825 -1.5889999866485596 3.0
74.90299987792969 6.4710001945495605 -2.0829999446868896 13.0
37.07099914550781 3.174999952316284 -1.2339999675750732 1.0
34.104000091552734 2.9149999618530273 -1.3270000219345093 24.0
33.52299880981445 2.864000082015991 -1.496999979019165 9.0
29.242000579833984 2.490999937057495 -1.468000054359436 2.0
28.599000930786133 2.434000015258789 -1.5980000495910645 3.0
74.81800079345703 6.357999801635742 -2.121999979019165 13.0
35.18600082397461 2.9609999656677246 -1.187999963760376 0.0
34.130001068115234 2.869999885559082 -1.3450000286102295 23.0
33.520999908447266 2.815999984741211 -1.5130000114440918 9.0
29.55500030517578 2.4760000705718994 -1.4989999532699585 4.0
28.666000366210938 2.3989999294281006 -1.6160000562667847 5.0
75.0719985961914 6.271999835968018 -2.1679999828338623 14.0
36.98699951171875 3.062999963760376 -1.2699999809265137 7.0
34.323001861572266 2.8359999656677246 -1.371000051498413 15.0
33.347999572753906 2.753999948501587 -1.5219999551773071 9.0
29.809999465942383 2.4549999237060547 -1.5269999504089355 4.0
28.566999435424805 2.3499999046325684 -1.6239999532699585 6.0
41.38100051879883 3.372999906539917 -1.2089999914169312 1.0
36.98899841308594 3.009000062942505 -1.2860000133514404 9.0
34.82099914550781 2.8269999027252197 -1.406000018119812 10.0
33.237998962402344 2.694999933242798 -1.531999945640564 5.0
29.9689998626709 2.4240000247955322 -1.5490000247955322 3.0
28.523000717163086 2.303999900817871 -1.6339999437332153 6.0
41.38800048828125 3.312999963760376 -1.2269999980926514 6.0
37.0 2.9549999237060547 -1.3029999732971191 11.0
35.12799835205078 2.799999952316284 -1.4329999685287476 10.0
30.31800079345703 2.4089999198913574 -1.4079999923706055 0.0
29.815000534057617 2.367000102996826 -1.5529999732971191 4.0
28.509000778198242 2.259999990463257 -1.6449999809265137 5.0
39.5620002746582 3.1050000190734863 -1.1859999895095825 0.0
37.0890007019043 2.9059998989105225 -1.3200000524520874 11.0
35.13600158691406 2.747999906539917 -1.4470000267028809 9.0
30.625 2.38700008392334 -1.434999942779541 2.0
30.106000900268555 2.3429999351501465 -1.5800000429153442 6.0
28.517000198364258 2.2170000076293945 -1.656000018119812 5.0
46.3129997253418 3.572999954223633 -1.4079999923706055 4.0
37.21500015258789 2.8580000400543213 -1.3380000591278076 11.0
35.1609992980957 2.696000099182129 -1.4600000381469727 10.0
31.000999450683594 2.36899995803833 -1.4639999866485596 4.0
29.99799919128418 2.2899999618530273 -1.5829999446868896 7.0
28.52899932861328 2.1730000972747803 -1.6660000085830688 5.0
39.512001037597656 2.9800000190734863 -1.2130000591278076 2.0
34.8489990234375 2.619999885559082 -1.2630000114440918 0.0
35.07600021362305 2.634999990463257 -1.468000054359436 10.0
31.361000061035156 2.3489999771118164 -1.4910000562667847 4.0
29.959999084472656 2.240000009536743 -1.590999960899353 7.0
28.46299934387207 2.122999906539917 -1.6710000038146973 6.0
40.50299835205078 2.992000102996826 -1.25600004196167 13.0
36.95399856567383 2.7219998836517334 -1.3519999980926514 11.0
35.07500076293945 2.5799999237060547 -1.4780000448226929 10.0
31.55699920654297 2.312999963760376 -1.5080000162124634 4.0
29.976999282836914 2.193000078201294 -1.600000023841858 7.0
28.429000854492188 2.0759999752044678 -1.6770000457763672 6.0
40.28799819946289 2.9119999408721924 -1.2589999437332153 14.0
37.14799880981445 2.677999973297119 -1.3680000305175781 11.0
31.865999221801758 2.2869999408721924 -1.3489999771118164 0.0
31.62299919128418 2.2679998874664307 -1.5190000534057617 3.0
30.083999633789062 2.1530001163482666 -1.6130000352859497 7.0
28.368000030517578 2.0250000953674316 -1.6790000200271606 6.0
40.08599853515625 2.8310000896453857 -1.2619999647140503 13.0
37.11899948120117 2.615000009536743 -1.375 11.0
32.35499954223633 2.2709999084472656 -1.3769999742507935 1.0
31.79199981689453 2.2269999980926514 -1.5329999923706055 3.0
30.131000518798828 2.1059999465942383 -1.621000051498413 7.0
28.308000564575195 1.9739999771118164 -1.6799999475479126 6.0
40.0359992980957 2.76200008392334 -1.2680000066757202 13.0
37.35100173950195 2.569000005722046 -1.3899999856948853 9.0
32.71200180053711 2.240999937057495 -1.3980000019073486 3.0
31.839000701904297 2.178999900817871 -1.5410000085830688 5.0
30.190000534057617 2.061000108718872 -1.628999948501587 7.0
28.270000457763672 1.9240000247955322 -1.684000015258789 6.0
40.05799865722656 2.697000026702881 -1.2740000486373901 13.0
37.5359992980957 2.5199999809265137 -1.4019999504089355 8.0
33.130001068115234 2.2160000801086426 -1.4210000038146973 4.0
31.899999618530273 2.128999948501587 -1.5479999780654907 8.0
30.204999923706055 2.010999917984009 -1.6339999437332153 6.0
28.23200035095215 1.8739999532699585 -1.6829999685287476 6.0
39.520999908447266 2.5940001010894775 -1.2610000371932983 3.0
37.58300018310547 2.4609999656677246 -1.406999945640564 11.0
33.520999908447266 2.186000108718872 -1.440000057220459 4.0
31.905000686645508 2.0759999752044678 -1.5509999990463257 8.0
30.264999389648438 1.9639999866485596 -1.6390000581741333 7.0
28.195999145507812 1.8229999542236328 -1.6829999685287476 6.0
39.82099914550781 2.5460000038146973 -1.2730000019073486 4.0
37.64099884033203 2.4010000228881836 -1.4110000133514404 6.0
33.82500076293945 2.1480000019073486 -1.4550000429153442 3.0
32.0369987487793 2.0290000438690186 -1.559000015258789 8.0
30.243999481201172 1.9110000133514404 -1.6390000581741333 7.0
28.18199920654297 1.774999976158142 -1.684000015258789 6.0
40.183998107910156 2.500999927520752 -1.2869999408721924 13.0
37.869998931884766 2.3499999046325684 -1.4220000505447388 4.0
33.91699981689453 2.0959999561309814 -1.4609999656677246 3.0
32.191001892089844 1.9830000400543213 -1.5670000314712524 8.0
30.243000030517578 1.8580000400543213 -1.6399999856948853 7.0
28.18899917602539 1.7259999513626099 -1.684000015258789 6.0
40.45100021362305 2.446000099182129 -1.2949999570846558 10.0
34.70100021362305 2.0889999866485596 -1.2999999523162842 0.0
34.28799819946289 2.059999942779541 -1.4739999771118164 4.0
32.32099914550781 1.9359999895095825 -1.5729999542236328 8.0
30.208999633789062 1.8040000200271606 -1.6369999647140503 7.0
28.187000274658203 1.6770000457763672 -1.6820000410079956 6.0
40.6349983215332 2.388000011444092 -1.2990000247955322 12.0
35.14899826049805 2.053999900817871 -1.315999984741211 1.0
34.37300109863281 2.005000114440918 -1.4769999980926514 4.0
32.483001708984375 1.8890000581741333 -1.5779999494552612 7.0
30.256000518798828 1.753000020980835 -1.6369999647140503 7.0
28.236000061035156 1.6299999952316284 -1.684000015258789 6.0
40.9379997253418 2.3329999446868896 -1.3049999475479126 11.0
35.61800003051758 2.0199999809265137 -1.3309999704360962 2.0
34.5620002746582 1.9550000429153442 -1.4809999465942383 6.0
32.654998779296875 1.840999960899353 -1.5829999446868896 8.0
30.29199981689453 1.7000000476837158 -1.6349999904632568 7.0
28.302000045776367 1.5839999914169312 -1.684000015258789 6.0
41.19900131225586 2.2750000953674316 -1.3079999685287476 13.0
36.15800094604492 1.9859999418258667 -1.3459999561309814 4.0
34.737998962402344 1.902999997138977 -1.4850000143051147 9.0
32.82400131225586 1.7920000553131104 -1.5870000123977661 8.0
30.385000228881836 1.6519999504089355 -1.6360000371932983 7.0
28.19099998474121 1.5269999504089355 -1.6729999780654907 6.0
41.59400177001953 2.2239999771118164 -1.3140000104904175 14.0
36.680999755859375 1.9500000476837158 -1.3600000143051147 4.0
34.917999267578125 1.8509999513626099 -1.4869999885559082 10.0
32.87200164794922 1.7369999885559082 -1.5839999914169312 8.0
30.469999313354492 1.6019999980926514 -1.6349999904632568 7.0
28.13599967956543 1.4730000495910645 -1.6649999618530273 6.0
41.9900016784668 2.1700000762939453 -1.3179999589920044 10.0
37.17900085449219 1.9110000133514404 -1.3700000047683716 4.0
35.14799880981445 1.7999999523162842 -1.4880000352859497 10.0
33.01499938964844 1.684000015258789 -1.5829999446868896 8.0
30.538000106811523 1.5499999523162842 -1.6319999694824219 7.0
28.148000717163086 1.4220000505447388 -1.6579999923706055 5.0
42.20399856567383 2.1040000915527344 -1.3140000104904175 11.0
37.64099884033203 1.8669999837875366 -1.378000020980835 3.0
35.45899963378906 1.7510000467300415 -1.4919999837875366 8.0
33.10900115966797 1.6269999742507935 -1.5789999961853027 8.0
30.66900062561035 1.5010000467300415 -1.6299999952316284 7.0
25.395000457763672 1.2309999465942383 -1.4869999885559082 0.0
42.54100036621094 2.0439999103546143 -1.312999963760376 5.0
38.025001525878906 1.8170000314712524 -1.38100004196167 3.0
35.73899841308594 1.7009999752044678 -1.4930000305175781 10.0
33.297000885009766 1.5770000219345093 -1.5779999494552612 8.0
30.825000762939453 1.4529999494552612 -1.628999948501587 7.0
25.750999450683594 1.2020000219345093 -1.5 1.0
42.9640007019043 1.9869999885559082 -1.312999963760376 3.0
38.409000396728516 1.7660000324249268 -1.3839999437332153 2.0
36.005001068115234 1.6480000019073486 -1.4930000305175781 9.0
33.43600082397461 1.5230000019073486 -1.5720000267028809 9.0
30.9950008392334 1.4040000438690186 -1.6260000467300415 7.0
26.156999588012695 1.1749999523162842 -1.5140000581741333 2.0
39.40299987792969 1.7450000047683716 -1.187999963760376 0.0
38.845001220703125 1.715000033378601 -1.3849999904632568 3.0
36.362998962402344 1.5980000495910645 -1.4950000047683716 11.0
33.650001525878906 1.472000002861023 -1.569000005722046 9.0
31.086999893188477 1.3519999980926514 -1.6200000047683716 7.0
26.628000259399414 1.1469999551773071 -1.531000018119812 3.0
39.891998291015625 1.6950000524520874 -1.187999963760376 0.0
39.2400016784668 1.6610000133514404 -1.3819999694824219 3.0
36.5369987487793 1.5379999876022339 -1.4859999418258667 11.0
33.875 1.4190000295639038 -1.565999984741211 9.0
31.158000946044922 1.2979999780654907 -1.6089999675750732 7.0
27.167999267578125 1.121000051498413 -1.5499999523162842 3.0
40.55799865722656 1.6490000486373901 -1.1890000104904175 1.0
39.59199905395508 1.6030000448226929 -1.3769999742507935 3.0
36.81800079345703 1.4830000400543213 -1.4809999465942383 11.0
34.12300109863281 1.3669999837875366 -1.5609999895095825 9.0
31.246999740600586 1.2430000305175781 -1.5989999771118164 7.0
27.648000717163086 1.0920000076293945 -1.565000057220459 3.0
41.24599838256836 1.6019999980926514 -1.190000057220459 1.0
40.095001220703125 1.5509999990463257 -1.375 4.0
37.41299819946289 1.4390000104904175 -1.4869999885559082 10.0
34.349998474121094 1.312999963760376 -1.5540000200271606 9.0
31.575000762939453 1.1979999542236328 -1.600000023841858 5.0
28.104000091552734 1.059000015258789 -1.5770000219345093 3.0
41.90999984741211 1.5509999990463257 -1.187000036239624 2.0
40.512001037597656 1.4910000562667847 -1.3680000305175781 5.0
37.75699996948242 1.3839999437332153 -1.4800000190734863 8.0
34.6609992980957 1.2610000371932983 -1.5499999523162842 9.0
28.44300079345703 1.0210000276565552 -1.4240000247955322 0.0
28.451000213623047 1.0180000066757202 -1.5809999704360962 3.0
42.5880012512207 1.4980000257492065 -1.1829999685287476 2.0
40.97700119018555 1.434999942779541 -1.3600000143051147 8.0
38.14099884033203 1.3279999494552612 -1.4730000495910645 11.0
34.97999954223633 1.2089999914169312 -1.5429999828338623 9.0
28.920000076293945 0.9860000014305115 -1.430999994277954 0.0
28.78700065612793 0.9779999852180481 -1.5820000171661377 4.0
43.33000183105469 1.4450000524520874 -1.1779999732971191 3.0
41.4379997253418 1.375 -1.3509999513626099 4.0
38.5890007019043 1.2710000276565552 -1.4670000076293945 12.0
35.36800003051758 1.156999945640564 -1.5390000343322754 10.0
29.408000946044922 0.949999988079071 -1.437000036239624 1.0
29.042999267578125 0.9330000281333923 -1.5770000219345093 5.0
44.09299850463867 1.3899999856948853 -1.1699999570846558 3.0
42.097999572753906 1.319000005722046 -1.3450000286102295 4.0
38.90700149536133 1.2109999656677246 -1.4529999494552612 12.0
35.736000061035156 1.1030000448226929 -1.5299999713897705 10.0
29.9689998626709 0.9120000004768372 -1.444000005722046 3.0
29.253999710083008 0.8849999904632568 -1.5679999589920044 4.0
44.854000091552734 1.3329999446868896 -1.159000039100647 3.0
42.66299819946289 1.2580000162124634 -1.3329999446868896 5.0
39.29199981689453 1.1490000486373901 -1.440999984741211 11.0
36.12300109863281 1.0479999780654907 -1.5219999551773071 10.0
30.57900047302246 0.875 -1.4509999752044678 3.0
29.683000564575195 0.8429999947547913 -1.5700000524520874 3.0
45.69499969482422 1.2740000486373901 -1.1480000019073486 3.0
43.33599853515625 1.1990000009536743 -1.3229999542236328 4.0
39.882999420166016 1.093999981880188 -1.4329999685287476 10.0
36.52399826049805 0.9929999709129333 -1.5119999647140503 5.0
31.22599983215332 0.8370000123977661 -1.4600000381469727 3.0
30.15999984741211 0.8019999861717224 -1.5729999542236328 4.0
46.5 1.2100000381469727 -1.1339999437332153 3.0
44.08300018310547 1.1380000114440918 -1.3109999895095825 4.0
40.54999923706055 1.0379999876022339 -1.4240000247955322 11.0
36.99800109863281 0.9369999766349792 -1.5019999742507935 7.0
31.844999313354492 0.7950000166893005 -1.4630000591278076 4.0
30.60099983215332 0.7580000162124634 -1.5720000267028809 7.0
47.388999938964844 1.1460000276565552 -1.1169999837875366 3.0
44.90999984741211 1.0779999494552612 -1.2999999523162842 4.0
41.064998626708984 0.9750000238418579 -1.409000039100647 12.0
37.492000579833984 0.8809999823570251 -1.4910000562667847 7.0
32.44900131225586 0.7509999871253967 -1.4639999866485596 3.0
30.947999954223633 0.7099999785423279 -1.562999963760376 7.0
48.21900177001953 1.0789999961853027 -1.0959999561309814 3.0
45.7130012512207 1.0140000581741333 -1.284000039100647 4.0
41.6609992980957 0.9129999876022339 -1.3940000534057617 8.0
38.185001373291016 0.8270000219345093 -1.4859999418258667 6.0
33.082000732421875 0.7049999833106995 -1.4630000591278076 3.0
31.358999252319336 0.6610000133514404 -1.5570000410079956 8.0
49.1619987487793 1.0099999904632568 -1.0750000476837158 2.0
46.61199951171875 0.9490000009536743 -1.2680000066757202 4.0
42.43000030517578 0.8529999852180481 -1.38100004196167 6.0
38.51300048828125 0.7649999856948853 -1.4639999866485596 5.0
33.69900131225586 0.6570000052452087 -1.4609999656677246 3.0
31.819000244140625 0.6140000224113464 -1.5499999523162842 8.0
49.992000579833984 0.9380000233650208 -1.0460000038146973 2.0
47.4640007019043 0.8820000290870667 -1.2480000257492065 4.0
43.23899841308594 0.7910000085830688 -1.3680000305175781 7.0
39.082000732421875 0.7039999961853027 -1.4479999542236328 4.0
34.3129997253418 0.6069999933242798 -1.4550000429153442 3.0
32.25 0.5640000104904175 -1.5399999618530273 8.0
50.97200012207031 0.8650000095367432 -1.0190000534057617 1.0
48.479000091552734 0.8130000233650208 -1.2280000448226929 4.0
43.9900016784668 0.7269999980926514 -1.350000023841858 5.0
39.79499816894531 0.6460000276565552 -1.437000036239624 3.0
34.92599868774414 0.5569999814033508 -1.4459999799728394 3.0
32.698001861572266 0.5120000243186951 -1.5290000438690186 8.0
51.92300033569336 0.7870000004768372 -0.9869999885559082 1.0
49.53799819946289 0.7419999837875366 -1.2050000429153442 3.0
45.01499938964844 0.6620000004768372 -1.3350000381469727 6.0
40.67499923706055 0.5879999995231628 -1.4270000457763672 4.0
35.55699920654297 0.5019999742507935 -1.4359999895095825 3.0
33.224998474121094 0.4620000123977661 -1.5180000066757202 7.0
52.8489990234375 0.7070000171661377 -0.9490000009536743 0.0
50.74300003051758 0.6690000295639038 -1.1820000410079956 4.0
45.98500061035156 0.5950000286102295 -1.315999984741211 6.0
41.24300003051758 0.5239999890327454 -1.402999997138977 3.0
36.24599838256836 0.4490000009536743 -1.4249999523162842 2.0
33.86899948120117 0.41200000047683716 -1.5130000114440918 8.0
60.67599868774414 0.7120000123977661 -1.0269999504089355 3.0
51.99300003051758 0.5950000286102295 -1.156000018119812 3.0
46.92100143432617 0.5260000228881836 -1.2929999828338623 5.0
42.22600173950195 0.4620000123977661 -1.3919999599456787 3.0
36.89899826049805 0.3919999897480011 -1.4110000133514404 2.0
34.387001037597656 0.3569999933242798 -1.4980000257492065 9.0
61.7400016784668 0.6150000095367432 -0.9760000109672546 5.0
53.38399887084961 0.5180000066757202 -1.1269999742507935 3.0
48.130001068115234 0.45500001311302185 -1.2719999551773071 5.0
43.222999572753906 0.3959999978542328 -1.375 3.0
37.48699951171875 0.3330000042915344 -1.3910000324249268 2.0
35.01300048828125 0.30300000309944153 -1.4859999418258667 8.0
63.321998596191406 0.5210000276565552 -0.9300000071525574 5.0
54.88600158691406 0.43799999356269836 -1.097000002861023 3.0
49.18899917602539 0.3799999952316284 -1.24399995803833 5.0
44.30799865722656 0.3319999873638153 -1.3589999675750732 3.0
38.369998931884766 0.2750000059604645 -1.378999948501587 2.0
35.71200180053711 0.24699999392032623 -1.4730000495910645 8.0
65.36599731445312 0.4269999861717224 -0.8840000033378601 7.0
56.29800033569336 0.3529999852180481 -1.0579999685287476 2.0
50.750999450683594 0.3050000071525574 -1.2230000495910645 4.0
45.426998138427734 0.2630000114440918 -1.3389999866485596 3.0
39.27899932861328 0.2150000035762787 -1.3650000095367432 2.0
36.36000061035156 0.19099999964237213 -1.4559999704360962 7.0
66.7490005493164 0.32199999690055847 -0.8230000138282776 4.0
57.810001373291016 0.2639999985694885 -1.0169999599456787 3.0
51.946998596191406 0.22499999403953552 -1.1890000104904175 4.0
46.6619987487793 0.19099999964237213 -1.319000005722046 3.0
40.19599914550781 0.15299999713897705 -1.3489999771118164 2.0
37.10900115966797 0.13199999928474426 -1.440000057220459 6.0
69.88200378417969 0.2199999988079071 -0.7739999890327454 4.0
59.73400115966797 0.17299999296665192 -0.9779999852180481 3.0
53.76100158691406 0.14399999380111694 -1.1629999876022339 3.0
48.012001037597656 0.11599999666213989 -1.2960000038146973 4.0
41.125 0.08699999749660492 -1.3270000219345093 2.0
37.952999114990234 0.07100000232458115 -1.4259999990463257 6.0
71.50800323486328 0.10400000214576721 -0.7009999752044678 2.0
61.29199981689453 0.07400000095367432 -0.9229999780654907 3.0
55.62099838256836 0.05700000002980232 -1.1319999694824219 4.0
49.1879997253418 0.03799999877810478 -1.2649999856948853 3.0
42.224998474121094 0.019999999552965164 -1.3079999685287476 2.0
38.784000396728516 0.009999999776482582 -1.4049999713897705 5.0
74.69400024414062 -0.012000000104308128 -0.6359999775886536 4.0
62.61800003051758 -0.026000000536441803 -0.8619999885559082 3.0
57.71900177001953 -0.035999998450279236 -1.0980000495910645 5.0
50.77899932861328 -0.04399999976158142 -1.2389999628067017 3.0
43.268001556396484 -0.04899999871850014 -1.2829999923706055 2.0
39.816001892089844 -0.054999999701976776 -1.3890000581741333 5.0
79.01300048828125 -0.14100000262260437 -0.5659999847412109 2.0
63.93299865722656 -0.13099999725818634 -0.7929999828338623 1.0
59.361000061035156 -0.13199999928474426 -1.0490000247955322 4.0
52.30699920654297 -0.12999999523162842 -1.2039999961853027 4.0
44.24700164794922 -0.12200000137090683 -1.25 2.0
40.74399948120117 -0.12300000339746475 -1.3669999837875366 6.0
95.03600311279297 -0.31299999356269836 -0.5559999942779541 1.0
73.52799987792969 -0.2630000114440918 -0.8130000233650208 4.0
61.604000091552734 -0.2370000034570694 -1.003999948501587 4.0
54.332000732421875 -0.2199999988079071 -1.1759999990463257 4.0
45.275001525878906 -0.1979999989271164 -1.215999960899353 3.0
41.79899978637695 -0.19200000166893005 -1.343000054359436 6.0
112.86199951171875 -0.5440000295639038 -0.5009999871253967 5.0
75.03099822998047 -0.3880000114440918 -0.7239999771118164 2.0
63.28499984741211 -0.34299999475479126 -0.9419999718666077 4.0
56.452999114990234 -0.3179999887943268 -1.1419999599456787 4.0
46.22700119018555 -0.2750000059604645 -1.1759999990463257 3.0
42.94200134277344 -0.2639999985694885 -1.3179999589920044 5.0
113.1240005493164 -0.7250000238418579 -0.3400000035762787 9.0
76.9749984741211 -0.5189999938011169 -0.6309999823570251 1.0
65.3759994506836 -0.45500001311302185 -0.878000020980835 0.0
58.486000061035156 -0.4189999997615814 -1.0980000495910645 4.0
